6.798682841200758276e-01 2.931936540289042270e+00 1.051558704960841029e+00
2.292796984120076154e+00 3.356078554388213786e-01 2.069157429690068994e+00
-2.248731315879922477e+00 -4.981579264351695180e+00 -4.485349508093607329e-01
-6.893380158799231605e-01 -2.955537994407891667e+00 2.247115336785058537e-01
-1.547853915879923603e+00 -1.058271463193564133e+00 3.482644727165870258e+00
2.217810784120075596e+00 3.137087934834001057e+00 3.599889241539735996e-01
1.428899284120075164e+00 5.872134898601919062e+00 -3.421285742203266977e+00
3.008109184120075774e+00 4.000730320779187110e+00 -2.944792163047536881e+00
-6.544350158799232542e-01 5.060835494100316190e+00 -2.798762204195391234e+00
-4.821145158799226005e-01 -5.608935744253349398e+00 1.167518945306080136e+00
-4.855660158799224857e-01 -4.444480852069409238e+00 1.987327031711904279e+00
-9.066399158799243185e-01 -4.592519282677863579e+00 3.206728006790767194e-01
-7.312432158799225812e-01 -3.334781754712973223e-01 7.626928200214437847e-01
2.226589084120075945e+00 5.312973956224587013e+00 -2.612097626964527741e+00
-9.605462158799241701e-01 -4.662055927756051155e+00 7.840341476271461829e-01
3.830954841200764349e-01 -4.038706117921964101e-01 3.889220359357786982e+00
2.401938841200774166e-01 6.061388816833355619e+00 -2.335298609600554354e+00
-8.955102158799235212e-01 3.294510426608216136e+00 -1.706658645122154372e+00
-2.889684415879924195e+00 9.143145631293571052e-01 -4.744547311807840728e+00
-8.211571158799244596e-01 -3.609882152685879753e+00 3.901752847949320646e+00
-1.574445415879924370e+00 -9.396014875887693796e-01 3.349464055596238943e+00
5.587228412007618633e-02 -2.189633997325496573e+00 4.101314000713554897e+00
-7.238366158799237615e-01 1.257445639220320377e+00 1.326736318726175146e+00
-7.274941158799237417e-01 1.684804508552054658e+00 -1.176668207492397311e+00
1.340450184120075550e+00 7.143464934229630803e-01 2.932084530240583131e+00
-1.530300215879924597e+00 1.369239800625187797e+00 -4.157044317150485391e+00
8.048239841200768296e-01 -3.383521143827518118e-01 3.829568610231977033e+00
-8.315835158799245175e-01 -1.512476482155980184e+00 6.315452593435203488e-01
-2.396195315879924514e+00 -1.776953281474297430e+00 1.417698654026033678e+00
1.138174841200765286e-01 -3.640912417688210834e+00 1.567465719278622771e+00
2.857002984120074807e+00 2.881157632648934097e+00 -2.616833786417006813e+00
-7.220132158799230648e-01 2.548147379405780732e-01 2.538627745252933998e+00
-2.688486515879924266e+00 -1.381654463534939703e+00 1.956983398684397413e+00
-1.064904115879923507e+00 -8.115407494581889924e-01 3.145085068443203458e+00
3.642861084120076587e+00 2.662702778296799355e+00 -4.281250383473912180e+00
-1.351769315879923328e+00 3.725673749346294805e+00 -3.996428273731090997e+00
1.984079684120075626e+00 1.161189780800079729e+00 -2.144484201635427745e+00
2.170003484120075932e+00 1.153617310111152205e+00 -1.369546851380528452e+00
3.568028984120076075e+00 1.740221107800306699e+00 -4.299168037823181798e+00
-1.589090815879924845e+00 3.673138466661268531e+00 -4.010504956773067065e+00
-2.263996215879925167e+00 -3.402021703975028011e+00 3.622912951738209930e+00
-2.002515515879923491e+00 -1.152569032344733291e+00 3.201775741764079974e+00
-3.963431615879923875e+00 -3.791849071118856607e+00 2.692935491284462302e+00
-5.356179158799250217e-01 1.936069603695076413e+00 -3.689632600765666126e+00
-1.737212415879923810e+00 -5.685006676679164705e+00 2.973230260232157640e+00
3.589063184120075967e+00 7.466054704774963691e-01 -4.257963166324833182e+00
-3.635738415879925078e+00 -3.291111402711816680e+00 1.833014437090129789e+00
8.559988841200777410e-01 1.134175399725722677e+00 3.207371523712212458e+00
-2.092801715879923474e+00 -3.649040266218439577e+00 2.425083497131364507e-01
-1.264780515879923017e+00 -2.971996647780416723e+00 4.125641382015343694e+00
-7.604500158799225584e-01 2.731083758374253101e+00 -1.939187630417544828e+00
-4.264992158799231214e-01 -8.227880149587167846e-01 3.913382564260494689e+00
-6.977288158799239692e-01 4.345520342671689851e-01 -4.307091030069015503e+00
-3.285952115879922530e+00 -5.276757098553146896e+00 -3.019615277128142594e-01
-3.117383615879924630e+00 -1.876864658179224987e+00 1.811348893555461359e+00
2.851323584120075250e+00 2.274989306969030789e+00 -2.536900948227185815e+00
1.157909284120077542e+00 6.423889122453735112e+00 -2.548960271224041119e+00
2.462744784120076247e+00 2.477476674544347723e+00 -4.330881671919161846e+00
1.692101184120076596e+00 2.782885678365550897e-01 -5.685631425733057576e-01
1.866612884120075977e+00 8.554693426787753907e-01 2.502494796101636609e+00
2.506188084120077431e+00 1.422267842610458244e+00 -2.764412470502130237e+00
-9.752891587992280897e-02 1.389448799147742220e+00 -3.450745805264629151e+00
1.601868384120075373e+00 -1.624004155531662275e-01 -1.380118654326814021e-01
2.119292384120075035e+00 3.876088384139147358e+00 -1.458673297695337157e+00
-3.429346515879925228e+00 -3.439557706458868047e+00 9.708963448717324862e-01
-1.928655315879922227e+00 -2.946625846031377893e+00 4.057615813664752658e+00
2.056113841200755132e-01 5.668822520966977363e-01 -4.800954126385474474e+00
1.849092784120077271e+00 4.205894037955948406e+00 -3.539054586732691465e+00
-7.972649158799243185e-01 1.802398464560216240e+00 1.588769554603902678e+00
-4.309464315879924179e+00 -4.243915014826089127e+00 1.814643750051124771e+00
-2.102481915879923058e+00 6.842310723516232818e-01 -3.911459523157874152e+00
-1.531154715879924355e+00 1.441722320477635266e+00 -4.414874407874899376e+00
-4.152085215879924185e+00 -5.898948843139697473e+00 2.020089675134108198e+00
-1.212604615879922632e+00 3.870938625633222330e+00 -2.884428172549331926e+00
1.591904384120076177e+00 2.361048073240485101e-01 -1.293971182760636163e+00
5.730597841200761877e-01 2.799997149459978907e+00 1.758319156202685418e+00
8.407294841200751989e-01 -3.585538775749984808e+00 2.473341749627603114e+00
1.655602184120076092e+00 4.200094157490896762e+00 -1.599512409178711625e+00
-9.178216158799245017e-01 1.599511684825243307e+00 1.512017012558563023e+00
4.436711784120075386e+00 6.522639267746866976e-01 -4.626320009646442522e+00
1.338094284120077804e+00 6.265353874079183427e+00 -2.854694763005829916e+00
-4.067870415879923485e+00 -3.983241425061704089e+00 2.567849710369383587e+00
-7.766060158799235058e-01 9.190512891261392037e-01 4.499775868336273743e-01
-2.810751587992399436e-02 -1.453342466853484449e+00 3.770465067525881953e+00
2.775673584120076587e+00 3.869399875061378946e-01 1.547721566927942494e+00
-2.438599515879923185e+00 -2.114936377432107495e+00 3.632764013716602847e+00
5.920615841200771445e-01 -3.016920406501983898e+00 3.591133648312587745e+00
-2.157251815879922763e+00 -9.031945678074944084e-01 2.043237985801209078e+00
-2.777979315879923750e+00 -2.218176579299359297e+00 2.814987939234585124e+00
-3.004290115879922674e+00 -5.332780780344573479e+00 3.128962269932746842e+00
2.307369184120076966e+00 -2.625748653850409342e-01 2.807857855726721308e+00
2.530440484120075162e+00 2.718619454803025803e+00 -3.505549205985758476e+00
2.228093684120076912e+00 1.320649928436409715e+00 -1.673506399032397507e+00
9.110922841200761457e-01 7.036055857289052362e+00 -2.550619187677855670e+00
1.171292784120075314e+00 -7.899693425699193527e-01 -2.526539915801086500e-01
-1.034255315879923476e+00 -4.200918525506414980e+00 3.697673958795284044e+00
3.559178412007497905e-02 -4.208833868436629544e+00 1.614004398751308189e+00
2.633917884120077879e+00 3.858153927872909783e+00 -3.960930213354135532e+00
-8.871163158799248993e-01 -2.617786286718179478e-01 3.944786341253147532e-01
2.856687084120076658e+00 2.023312804857239744e+00 -1.388097802221851307e+00
-8.151131158799245213e-01 -3.158375539240400265e+00 3.701841753127035339e+00
-5.738534158799240004e-01 -2.237998748047403286e+00 4.966772637758675724e-01
1.380023884120075151e+00 -5.332196063720089363e-01 -3.985397051739821284e-01
-1.129667015879923131e+00 1.654070093088097382e+00 -1.553044990003886808e-02
2.481343784120076723e+00 3.477488386884734606e+00 -1.432376424124483627e+00
-2.819777715879922653e+00 -4.569387482674234668e+00 3.686134166255603084e+00
3.758429841200751076e-01 3.833174803923111718e+00 -4.638644189456044703e-02
4.017378884120077487e+00 2.441867965493083936e+00 -3.881185353522945469e+00
2.039498084120077603e+00 -2.042012096851350655e+00 1.694983330777135588e+00
-3.457419615879922414e+00 -4.026450739483736108e+00 6.144157694349070553e-01
-8.841815879924297752e-03 1.109531527546038010e+00 -4.697421365819815620e+00
-6.645577158799227391e-01 3.667462789308193472e+00 -1.765541557318190513e+00
2.460875584120077342e+00 7.651066304517530892e-01 3.813621634202527533e-01
-2.242839915879923929e+00 -1.057773032797862056e+00 2.668673534634941280e+00
-2.240174215879923825e+00 -5.087688111056068330e+00 -1.304112385574795197e-01
-9.585152158799246092e-01 3.164226025871208405e-03 2.304487049313364899e+00
-2.680489158799247429e-01 -2.380198489816959029e+00 5.290709505060278151e-01
1.927037784120076980e+00 -1.562251050836047650e+00 2.057619763382718681e+00
-3.216843515879924009e+00 -2.557956982384084199e+00 1.821947673238134557e+00
-1.914927015879922534e+00 -7.678274774345906772e-01 2.558034844457528489e+00
1.670802984120075552e+00 3.190617294258761838e+00 2.188104002991582142e-01
-3.078377158799242008e-01 6.560921757846327473e-01 -1.715553937105631421e+00
-1.497428215879924140e+00 5.537472287195708276e-01 -3.811066932390946072e+00
5.678168412007664895e-02 -8.710024829400040414e-01 -1.164912796946146328e-01
-2.659880915879924146e+00 -2.097155816820425400e+00 2.859362648985382727e+00
7.298849841200762967e-01 -8.681220055334846197e-01 3.600165553267450580e+00
1.737784484120075579e+00 6.199190304038976862e+00 -2.648365661373571545e+00
-6.138009158799235809e-01 3.181860068134412245e+00 -4.973386039195615282e-02
-9.736336158799246965e-01 6.060220859811997762e-01 8.154523958559536934e-02
-2.036365615879924373e+00 -4.365911416631828246e+00 -2.608396231632363893e-01
-2.602367515879925097e+00 -5.033188779194839313e+00 -4.699396226663480891e-01
2.596985584120076851e+00 2.979467884886979334e+00 -4.110946834535987859e-01
2.828072284120076940e+00 5.925035541544012574e-01 1.096189656193313766e+00
-9.486153158799226492e-01 1.467398190331754781e+00 1.578687671689242178e+00
4.689749841200751002e-01 5.025596802412198194e+00 -3.648114837911864861e+00
-8.340203158799226468e-01 -5.281198645828121485e+00 2.013351493337137921e+00
-3.165688158799241370e-01 7.768887389520734432e-01 -2.144261646951471256e+00
-1.349714015879922568e+00 -3.738455674954165309e-01 1.144769828523120925e+00
-7.492562158799245253e-01 -3.880726285835986999e+00 3.796149908594614319e-01
8.653113841200763545e-01 -1.480122199010867945e+00 8.000726249947183455e-02
4.670896084120076175e+00 1.100210658982000655e+00 -4.699918988551923249e+00
6.739418412007580628e-02 -2.970316705155975789e+00 3.495086548220226685e+00
-2.234931215879925048e+00 -4.237869514676897431e+00 3.520398421613971429e+00
-1.387580215879924639e+00 -4.502723550341018566e+00 3.288693499237086648e+00
9.375068412007578345e-02 -4.198589486983905772e+00 2.478046251976892211e+00
-3.098592415879923401e+00 -2.066099913982496705e+00 1.305254455554134108e+00
-3.791281587992330337e-02 4.358759794735407311e+00 -2.293848240175616837e+00
-3.040520158799239203e-01 -4.191694500718833538e+00 2.061318243175917608e+00
3.887346584120075388e+00 2.192105840765582236e+00 -4.407346452845961160e+00
9.016638412007579872e-02 3.928465814302264825e+00 -2.003135211050236286e+00
-2.292641158799227641e-01 1.972519610798589174e+00 2.201430771971602418e+00
-1.071717115879923243e+00 -1.947440253346295780e+00 3.748668034343503486e+00
-7.701058158799242159e-01 3.526178806053938963e+00 -1.767652884687893167e+00
2.355893584120076323e+00 -7.792759446202480733e-01 7.246723510367220067e-01
2.656410884120077753e+00 5.315851113785383664e-01 2.009268510498299243e+00
5.677634841200756011e-01 1.533534378070318782e+00 2.939773553415908403e+00
-3.900055815879923671e+00 -4.286444410043980469e+00 2.212417960123787886e+00
1.757723184120075555e+00 6.206908695630554362e+00 -2.810593266220371422e+00
-4.294198158799247267e-01 -1.929693879600012263e+00 1.542231960356860720e-01
4.586340841200751695e-01 -3.508639447258695476e+00 2.182886124987437171e+00
-1.754676115879922893e+00 -4.372773523222880598e+00 -1.908127595223946815e-01
-4.421395158799242830e-01 1.759747000817614593e+00 -3.536464367484585036e+00
1.707509584120077806e+00 1.342671152448549510e+00 -3.595999656059627458e+00
1.765370884120076811e+00 5.986927043397531456e+00 -3.390527176180228253e+00
2.451671484120075295e+00 1.021779709877346232e+00 -8.118279529367144684e-03
2.015808784120076691e+00 -1.132262677500721182e+00 5.280172001254388459e-01
2.418880384120075000e+00 1.266572279262154321e+00 -2.641532928681107339e+00
-1.459595515879922756e+00 3.018501019304154376e+00 -3.069165739785852498e+00
6.406287841200765110e-01 3.088919728151304334e+00 8.049601000395391059e-01
-1.900641715879922256e+00 -7.054231872377597634e-01 2.148856240423935304e+00
1.034140684120075093e+00 -1.802583690756476731e+00 3.813262991335219176e+00
-1.247567158799228054e-01 4.712455047454031209e+00 -3.732020918269370213e+00
-2.359735915879923596e+00 1.617239702110571997e+00 -4.095590221947317922e+00
1.301764584120076007e+00 -1.283397369673047184e+00 5.329349310327323730e-01
-1.125428115879924418e+00 -1.919794365814689319e-01 3.080514962829195014e+00
1.681914484120076825e+00 6.351844995283585149e+00 -2.844185519828257291e+00
2.134627484120076524e+00 4.091121672254827146e+00 -2.273598282907479007e+00
2.722226684120076179e+00 2.704326241259541241e+00 -4.059025637360047511e-01
-1.830516915879923046e+00 -5.968319304800733249e+00 3.303746835558251327e+00
2.952582484120077400e+00 4.159701135181947507e+00 -3.166471426391952892e+00
-7.947121158799234086e-01 2.983170361927475422e+00 -4.011660931681291231e+00
1.526781384120076357e+00 6.712075107084392034e-01 3.260892085689550690e+00
-1.506186715879923144e+00 -2.664507892500743713e-01 1.808430843176035197e+00
2.217128684120075466e+00 3.232784920244926585e-01 -6.733206177628774380e-01
-2.265464115879922247e+00 -1.692347226773014857e+00 1.368316765257642897e+00
-1.538521158799227295e-01 1.469195114459952212e+00 2.195016754093154443e+00
-2.298725215879923844e+00 -1.712022754616276288e+00 7.989498569918580539e-01
-3.626270415879923714e+00 -6.018134334714206446e+00 2.564324139699807326e+00
4.618063841200751307e-01 6.283987542274008575e+00 -2.490000354158415696e+00
-1.480286515879924991e+00 -8.065902596539658020e-01 9.939972080651224839e-01
-1.499665115879923905e+00 -1.298316482462860799e+00 6.325533974357286926e-01
-2.000878158799224704e-01 -4.038929341280881324e+00 9.721502774003647485e-01
-1.062264315879923426e+00 2.232369012177199075e+00 1.396443805829914418e-02
1.694692184120077716e+00 4.301212199412667303e+00 -2.047583485826420358e+00
4.012123784120075420e+00 1.555935017874711335e+00 -3.542531316567257171e+00
-1.918840815879923500e+00 -4.570210425765911744e+00 3.775810727640880771e+00
-7.581460158799245841e-01 3.317932820784498027e+00 -9.369602464873251213e-01
1.991921184120076349e+00 -1.258565786699188616e+00 1.388371719350264488e+00
-1.052288115879923769e+00 2.032736239024372615e+00 -2.717951400507210291e+00
1.216969984120075399e+00 -4.204920674925226587e-01 -5.545936815021230704e-01
-1.921196815879923747e+00 -1.940196579822820455e+00 3.845234145452395946e+00
1.323293184120075239e+00 -1.880293991228881634e+00 3.127463328738088411e+00
-7.689217158799237506e-01 2.353262919406857723e+00 -2.895464606994570200e+00
-8.167458158799234536e-01 1.013039062625896047e+00 -1.078076570163070125e+00
-1.404602915879922920e+00 -3.636381425549671809e-01 2.849545010176921522e+00
2.532347784120076994e+00 2.557433947735272550e+00 -2.319447758240127389e+00
2.422388384120077287e+00 -5.698007471901453957e-01 2.570850620669042463e+00
-1.821756815879922442e+00 -1.065792553591901282e+00 2.162190954503902862e+00
-1.770595615879923868e+00 -5.998782851798042159e+00 2.899960193220812332e+00
-1.648043115879923359e+00 -1.163653447753483006e+00 2.920674801690080535e+00
-4.135821587992438708e-02 -1.209484034016028886e+00 2.393568112783075325e-02
9.424902841200776260e-01 4.692600689945180537e-01 3.166384162264409774e+00
3.728938984120077293e+00 2.848768454530001382e+00 -3.469475276826774923e+00
1.048641084120075062e+00 1.218499805413484127e+00 3.137274590802589191e+00
-2.703893315879923875e+00 -4.349748657441757871e+00 8.535852248994882374e-02
-2.236126015879924100e+00 -5.103781519595531613e+00 3.293296389257501122e+00
-1.846051815879923286e+00 5.242666124991390841e-01 -4.641907689618029131e+00
-2.592795615879924576e+00 -3.538976377636650739e+00 3.352354806224662198e-01
-7.558846158799241710e-01 -3.282041082183478231e+00 3.643077305390213017e+00
2.211168584120076552e+00 3.920689781512507466e+00 -1.926083420329821383e+00
-1.100138215879923109e+00 -8.223338656964109816e-01 3.615778597477677714e+00
1.804888084120076952e+00 4.153520950752858099e+00 -3.217277966704715997e+00
2.120355884120075807e+00 3.838660086295222040e+00 -3.112460175353291003e+00
-4.459253815879923977e+00 -5.364703779457866695e+00 1.374210989848360764e+00
2.002762484120077513e+00 1.847672173602302292e+00 2.232801198868430870e+00
2.251138984120075293e+00 1.882311093787601752e+00 1.207616489232237633e+00
-1.391281915879923670e+00 -6.064737789497236520e+00 2.638822446273755506e+00
2.727593184120075787e+00 2.546575311757023563e+00 -4.312366644352317202e+00
-2.813236315879922067e+00 -6.176955774615652039e+00 3.057625668258689977e+00
-6.638390158799239993e-01 1.155745329628109275e+00 1.668697071813920463e+00
-1.332868315879923715e+00 -4.124975209427163669e+00 3.833455271376423834e+00
7.987509841200761684e-01 -1.809351710509825795e+00 3.552749724621413918e+00
-3.734215158799230605e-01 -5.182375063594252262e-01 3.419908826209518971e+00
-2.843525015879925011e+00 1.350393728921046810e+00 -3.600893561992153824e+00
1.091905884120075054e+00 -1.514952632167696267e+00 3.826027631838873955e+00
-3.192208215879924094e+00 -2.663617824740455386e+00 3.246195399341372134e+00
-2.244187215879924313e+00 -1.829450418158913294e+00 3.603487338571289111e+00
4.920050841200776515e-01 2.866014629737839936e+00 1.656391227458242854e+00
4.188994484120075690e+00 9.693906950586260729e-01 -4.018002858006424205e+00
2.798270384120075782e+00 2.444032821158104163e+00 -3.720246978872417398e-01
3.103537684120075912e+00 3.326126972894000833e+00 -2.974254460822449264e+00
3.007925841200773109e-01 -1.942065201660006624e+00 5.082322275070561002e-01
-2.210756715879924172e+00 -3.322741594850555202e+00 3.378003566525096812e-01
1.188901484120077567e+00 6.544975536406568040e+00 -3.089423954622448232e+00
1.795863984120074974e+00 -2.341705578677900412e+00 1.482267431483738962e+00
-5.814202158799247622e-01 -4.549652455664332962e+00 2.271116302611495996e+00
2.900107841200764147e-01 6.740315180587526989e+00 -2.746313219659658245e+00
2.930668412007548726e-02 -9.808824009789205434e-01 3.685952432415075641e+00
-2.280663415879922606e+00 -2.792499338944242737e+00 1.826309827999181290e-01
2.394583841200756125e-01 -3.578885493902737913e+00 1.643510325588610765e+00
-2.723880815879923034e+00 -4.450285178879957115e+00 3.732713461800890364e+00
-7.841805158799246556e-01 1.331117971145098000e+00 7.872663271195838863e-01
-1.263059315879922817e+00 -4.383169241552270279e+00 3.695958758465042848e+00
-9.016457158799227045e-01 -1.000701942362183933e-01 1.100863849237528003e+00
-4.360660615879922375e+00 -4.938111035869469312e+00 1.026358117182510687e+00
1.012705184120076707e+00 4.464530437243814376e+00 -3.285925910349968060e+00
2.474343084120076419e+00 2.837607125289374643e+00 -1.893723708746881229e+00
1.876540284120076674e+00 9.893896887197716206e-01 2.422076753842329566e+00
-5.052865158799250134e-01 -3.969657389346812781e+00 3.564493635763574808e+00
-2.518619615879925000e+00 1.796449968689256549e+00 -4.513362124249444385e+00
2.020209841200767131e-01 1.397171392384638722e+00 2.943674849100259117e+00
-2.495624615879924679e+00 -1.797246404782252061e+00 1.556338961137162302e+00
-6.174203158799229652e-01 -1.927597088931184699e-01 3.064148644728606818e+00
2.334792284120075667e+00 3.337194630395366346e+00 -2.412115520369760624e+00
-3.752457515879922489e+00 -3.746728963076086494e+00 1.321391610103489045e+00
1.460811584120077056e+00 -2.199483350099726842e+00 2.667705992322345843e+00
-2.259072158799227681e-01 -1.930353556581825725e+00 4.780749396372445115e-01
-1.886696158799225087e-01 -1.674214181281463265e+00 4.133121892975292866e+00
2.127948684120076539e+00 1.057512847874813700e+00 -4.711359729029052978e+00
2.723512984120077363e+00 2.691182569997515595e-01 1.819044152042857521e+00
-1.852801587992303212e-02 -3.741699778937501719e+00 1.562621466780559132e+00
-7.011376158799237368e-01 7.371838305332651942e-01 -3.756289862891162734e+00
1.375420284120076442e+00 3.797186743916626028e+00 4.080535107943141643e-02
-7.956322158799224997e-01 2.558288468579866137e+00 -2.509602249125450157e+00
1.317879384120075770e+00 6.263841743534349860e+00 -2.676258875771631462e+00
4.235586841200756902e-01 -3.713637329192009950e+00 3.028346119661588176e+00
2.962805841200776280e-01 1.156726876182574346e-02 3.376459492036935295e+00
-1.112171215879922626e+00 2.615555932348936796e+00 -1.815625970570550196e+00
-3.946834615879924790e+00 -5.378756519502286615e+00 2.262479488203904321e+00
-3.792429415879922772e+00 -5.001917444603673601e+00 5.563843223290998452e-02
2.359157484120075310e+00 1.834711193232915649e+00 -2.756003445765526472e+00
-7.088204158799242816e-01 1.071313648680202180e+00 2.480688481106606336e+00
1.679983841200765882e-01 4.257550538990627409e+00 -1.686162534816977310e+00
2.506551284120075884e+00 2.228010125464614077e+00 1.144136142129333455e+00
-2.229404515879923387e+00 -2.911069366786331436e+00 4.905038137383205266e-01
-5.271981158799234901e-01 -3.353684513403544454e+00 7.613969437107184213e-01
-1.936875215879922507e+00 1.690568712817029917e+00 -3.868189588740081231e+00
2.339211184120077114e+00 -1.752164981073133787e-01 1.065583816668337125e+00
-1.876865415879922283e+00 -1.800471989654877758e+00 5.023565381721546430e-01
2.473169584120077591e+00 9.351655127982383409e-01 -1.224396664272285440e+00
-7.247170158799235429e-01 2.681461125908597865e+00 6.155435409501350819e-01
5.295187841200771350e-01 6.446441276016902755e+00 -2.800194130538153470e+00
2.236363884120075252e+00 3.406904054828294282e+00 -2.066707914955418612e+00
8.853751841200760975e-01 -2.647882814109472349e+00 1.168286283602341102e+00
9.389563841200754268e-01 4.911253061126847896e+00 -2.521081961847853492e+00
-9.347130158799246136e-01 -5.201980660436824166e+00 2.369691197656126569e+00
1.904978084120077186e+00 2.885514311027345347e+00 4.594965181093464968e-01
-2.558312158799225244e-01 -3.069187443386814929e-01 2.215211283978315571e-01
-5.118341587992460834e-02 -3.912115766788320848e+00 2.025305748110149739e+00
2.448186384120077719e+00 2.428013510278068110e-01 1.347632472097320289e+00
-3.784761915879923500e+00 -4.650523373387869697e+00 3.094371115510765602e+00
2.432849784120077352e+00 -7.025059065706024120e-01 2.506224931064231054e+00
2.911032784120075600e+00 5.247257057213419174e-01 -4.643621048848700639e+00
8.726935841200770261e-01 6.346646191107393475e-01 -1.833908324829606640e+00
7.036948841200768578e-01 3.817683996630685694e+00 1.356746224879120943e-01
-8.143014158799246616e-01 -1.411933701822526699e-01 2.798796231034352822e+00
-3.920479158799224928e-01 -1.969712080391296638e+00 4.877056630300826146e-01
2.045836584120075852e+00 3.196690588790869758e-01 -3.873787781910221550e+00
1.878633784120077532e+00 3.680660072734763588e+00 -1.658444712530592779e+00
2.466896784120075292e+00 2.511907727513066568e+00 -4.177101424814780195e+00
2.546547584120077090e+00 3.601811341974760161e+00 -4.029617105758868334e+00
1.695578684120076174e+00 5.022846521807005971e+00 -3.648851773378985364e+00
3.669057384120077536e+00 4.299643618723122951e-01 -3.844234244544241452e+00
2.235060784120077138e+00 1.142267941556343924e+00 -1.088315042607218786e+00
-3.552910715879923575e+00 -3.599935262056897844e+00 4.417016056032281313e-01
1.179503584120075832e+00 5.667952336550713177e+00 -2.810798944755480644e+00
3.250723841200766628e-01 -3.076522769063313234e+00 6.009999879877991891e-01
2.815355584120075694e+00 2.791847813185872607e+00 -1.673625526515236661e+00
1.864124184120075300e+00 4.253149076361943060e+00 -2.185973565037977906e+00
-5.698861158799246596e-01 1.196436030479581802e-01 3.371987941277727607e+00
-1.074817715879922364e+00 4.460838079400451406e+00 -3.372800337192431552e+00
-3.256554515879924061e+00 -2.034914125898177328e+00 1.882625575275963969e+00
-1.409233915879923416e+00 -4.891833460465073280e+00 2.824406624802168753e-01
2.323000284120075865e+00 -3.537399434216100813e-01 1.819043463928602167e+00
2.838208412007645759e-02 4.062706858122926867e+00 -2.645734719554334813e+00
-2.217232158799248565e-01 1.487809601637116952e+00 -3.424123109943796095e+00
1.306659584120075213e+00 6.996277375011545896e-01 -3.290346562055391555e+00
1.545262784120075228e+00 -9.690609255100858244e-01 2.033745387132896917e-02
1.337200084120075960e+00 5.753344155491992851e+00 -3.453115522360246992e+00
8.498877841200765948e-01 5.898418776980987044e-01 -1.669436875216290472e+00
-2.775961587992412799e-02 -7.622477070163846680e-01 3.969777768953515196e+00
-4.408060515879924424e+00 -4.891526489577333159e+00 1.280813439836147705e+00
7.760428841200763816e-01 5.265480014516980001e-01 3.530894457353150440e+00
2.767284284120077764e+00 2.324196788121813295e+00 6.786958881289821555e-02
2.526915684120075500e+00 2.539216033456530575e+00 -3.021103024857418440e+00
9.307333841200773339e-01 2.876675554795404377e+00 1.703492618895407373e+00
-3.757969015879922381e+00 -5.444017379418285785e+00 3.222623385641224525e-01
1.822124384120076046e+00 1.440955049938256183e+00 -3.665980035156076067e+00
-1.066092715879924047e+00 1.426662619458747061e+00 -6.134294494460890146e-01
7.773001841200766204e-01 6.541783617363201131e+00 -2.669705007755999837e+00
-9.587456158799227968e-01 1.852960334507442797e+00 1.077029717394359265e+00
3.282518684120077523e+00 1.037385897373692023e+00 -4.323725035246239301e+00
9.744742841200775274e-01 -2.413977108897128243e+00 3.659721325268672221e+00
2.536650784120075830e+00 3.020724385513755550e+00 -2.676180682471017702e-01
1.115936984120077025e+00 -3.085397395040567314e+00 1.313139739361491864e+00
2.549457484120077222e+00 1.886641120190063192e-01 1.261820083101947709e-01
-2.459194215879924261e+00 -5.540069712650407929e+00 3.528211224649972166e+00
6.696341841200762479e-01 4.046658307291842505e+00 -4.933706634177516537e-01
4.790594841200771503e-01 2.427185660028279734e+00 1.649019031053773787e+00
-1.413759715879922441e+00 -2.088979628160015700e+00 4.060969772174900960e+00
-6.268197158799239110e-01 -3.774637040985699521e+00 8.861331972598979201e-01
-1.671563158799244664e-01 -7.199370871021150142e-01 3.577347526962393776e+00
-7.529122158799225195e-01 -4.395450381420629604e+00 2.873691487752470852e+00
1.416699884120075081e+00 -2.160692668358382029e+00 1.331789923331496706e+00
-1.579966015879924246e+00 -3.673814643089224896e-01 1.911555965570169935e+00
2.395038484120076028e+00 -5.553687802301824350e-01 5.763949599339317498e-01
-6.665902158799241750e-01 1.413102519132706902e+00 1.359855595747128998e+00
-1.400635615879923579e+00 3.582264647886905351e+00 -4.034854523126790049e+00
-3.837838158799229404e-01 -6.574238032640930540e-02 3.589066283217518638e+00
-1.544507715879922305e+00 -2.041715183151235458e+00 3.652088933992060138e+00
2.228533084120075891e+00 3.090477311915657221e+00 -8.691203765844693896e-01
-5.761864158799226976e-01 -1.648778675402791549e+00 1.844464327590074892e-01
1.181317784120076819e+00 3.735643983598759377e+00 -6.750409588954244811e-01
7.674780841200771198e-01 7.047900774352021003e+00 -2.625729623595252971e+00
-1.821932315879922770e+00 -1.185402864905681808e+00 2.723628343050399359e+00
1.580846284120076550e+00 -2.459037386524114854e+00 2.963551868229814090e+00
-3.284725215879924942e+00 -4.118782823690876782e+00 2.307587030974289806e-03
6.986517841200765577e-01 4.211312494213549362e-01 -2.287049643684395228e+00
2.365984284120076886e+00 4.286792399806287790e+00 -3.846076880954676369e+00
1.564490384120077238e+00 -1.373874111598224701e+00 7.935174614925948333e-01
-4.014276915879923635e+00 -4.517162308420727967e+00 1.895692723237559107e+00
1.562120784120077044e+00 3.489083981322728123e-01 -3.987464628668641264e+00
-2.485558158799250350e-01 9.916364861593756075e-01 2.508892854712129861e+00
-1.135450015879922558e+00 -5.399973184882722599e+00 1.578871667789533417e-01
-2.786582215879923385e+00 -3.701017780626755016e+00 3.407493844612969891e+00
2.145932684120077649e+00 3.816872256023644550e+00 -1.322901652816230733e+00
-4.567666158799227327e-01 6.439032913013923443e-01 -1.294798353709981420e+00
2.370217084120076922e+00 2.611744427568323257e+00 -2.759234701352848984e-01
-1.348473158799237126e-01 1.823511054344948978e-01 3.157810518455987037e+00
8.746329841200776167e-01 2.965993544869124143e+00 1.020453419463961620e+00
1.221609841200773927e-01 5.857557796673678041e+00 -2.389914966844751909e+00
4.696146284120075620e+00 1.355907896377743338e+00 -4.617229808239835975e+00
1.166641884120076522e+00 2.937880789896802902e+00 1.011127738182879376e+00
-4.444361587992488871e-02 4.283202746520996307e+00 -2.135129223913906138e+00
-1.152439215879923040e+00 -9.481160223966448308e-01 3.182861590491111059e+00
1.909928084120076530e+00 -1.849328487013603750e+00 1.041230532261622654e+00
7.394400841200763352e-01 4.227306345438829993e+00 -2.395328864830783111e+00
2.039116584120077569e+00 -1.941587071681050602e+00 1.457962035093805175e+00
-3.577462158799250003e-01 2.040511621852123980e+00 2.008139975159787483e+00
-6.226021158799227573e-01 -3.193115575192551070e+00 2.908508744692850922e-01
-1.082474615879922997e+00 -5.707895179193561930e+00 2.913493913201992136e+00
-7.467690158799229483e-01 3.476335594893589676e+00 -1.456715005703432819e+00
1.267998384120076594e+00 5.778554276890668362e+00 -2.877072161261827521e+00
2.338304784120077695e+00 3.803705394125768802e+00 -1.977295103555418709e+00
-2.020867215879923240e+00 -3.938356249835274436e+00 -1.647295311952118868e-01
-2.341370515879924508e+00 -1.064183249541236886e+00 1.953277934507751556e+00
9.768362841200769475e-01 -3.353747752738526877e+00 1.536902797336722859e+00
-1.876946158799228104e-01 -1.949050294721524024e+00 3.812123104039863986e+00
2.748165084120077317e+00 4.621850078513441318e+00 -3.523244630309448233e+00
-1.627848115879922286e+00 1.692797144794194297e+00 -3.505859220184775360e+00
-1.121070215879922172e+00 1.928094277820344704e+00 -2.252543403470666783e-01
-5.482430158799246334e-01 4.194333950892831453e+00 -2.551711145498713584e+00
-1.925643215879924153e+00 2.406969955866818278e+00 -3.314497192201601106e+00
2.156500884120075234e+00 1.702279167984570352e+00 -3.473235775060799391e+00
-3.071608815879923959e+00 -3.089865510406079707e+00 3.635383223704830580e-01
-7.444634158799232626e-01 3.240132259365496648e+00 -6.266423889178027729e-01
2.587256841200769597e-01 -3.978554084869972307e+00 1.587843687832184880e+00
2.862706684120075895e+00 1.129929185313756967e+00 6.808655180336010693e-01
6.762183841200766210e-01 1.263732705730517658e+00 -4.134060197828287819e+00
3.372872084120075442e+00 3.471180794522263025e+00 -3.409530127912727693e+00
1.306166784120077251e+00 -2.807926093170689974e+00 1.220580103648915893e+00
3.206073684120076539e+00 1.460536731443395464e+00 -4.603369908424014056e+00
-6.779702158799238987e-01 1.579616721893857267e+00 -1.286260993623827620e+00
-1.687348215879924895e+00 3.409875508831525792e+00 -3.549690761180335663e+00
-3.270815315879923357e+00 -2.637596922277931188e+00 2.152704919922457716e+00
-7.580468158799249512e-01 -4.735096559677510086e+00 2.468631711027879483e+00
-7.237435158799229162e-01 3.438008122489656593e+00 -4.027918003091274457e+00
2.048871584120075973e+00 -1.847632476862530071e+00 1.324911279033354150e+00
-7.877038158799223311e-01 -5.131956789857897938e+00 1.982532806706898354e+00
2.088716784120074887e+00 -7.933376704414770719e-01 1.036001388283584790e+00
-3.593697415879924417e+00 -4.326563041687020217e+00 3.271949040268083309e+00
5.427573841200767912e-01 3.938745727852772660e+00 -1.429212739654408537e+00
8.613638841200753626e-01 4.346561479519145621e+00 -1.525494166286551323e+00
4.292830584120077120e+00 1.014959951899413237e+00 -3.687485148620711417e+00
-1.060425615879924566e+00 1.622615148519235717e+00 -1.138696855839363975e+00
3.682018184120076310e+00 7.380142384612570217e-01 -4.796969123404282165e+00
1.512586184120075838e+00 1.081854287753022670e-01 -4.935643528033498706e-01
-8.709160158799249540e-01 3.138872080134044396e+00 -9.580271124481182232e-01
-3.079232158799243280e-01 -3.908201037799946764e+00 1.347373265346793803e+00
-3.614754158799229344e-01 1.275599629680362224e+00 2.700763456580629551e+00
-8.109902158799229266e-01 1.007606857596923255e+00 8.604886808308738200e-01
1.837630384120075178e+00 1.201385323693692497e-01 -2.267919114367054900e-01
-8.097634158799223991e-01 -5.065220317445066733e+00 2.948151537129237276e+00
-3.925731715879922312e+00 -4.816382905713334495e+00 2.935871982750430487e+00
3.922568841200756995e-01 6.186097704153945998e+00 -2.683750691227742458e+00
1.197180884120075506e+00 3.581087202704387185e+00 5.838752316225900296e-01
1.024529184120075431e+00 5.079752718414264345e-01 -1.400532518197204368e+00
1.590187784120075776e+00 3.910563784525687314e+00 -4.699488385133522295e-01
3.463936584120077100e+00 1.716240673541822304e+00 -4.407809498937319326e+00
5.129126841200758458e-01 -3.168873929954716395e+00 3.540405668475618661e+00
1.779411984120076839e+00 -1.662320562881850261e+00 2.532982873004157476e+00
-3.614704215879922522e+00 -5.176469527364359280e+00 2.756245586139324022e+00
-2.409702415879922732e+00 -1.329809912391628268e+00 2.937827404958176736e+00
-2.323404815879922758e+00 -4.084987955708583307e+00 3.880506982374068770e+00
-2.223096515879924961e+00 -2.789096600785104130e+00 3.589733064421036346e+00
7.998129841200750656e-01 3.468575413062966462e-01 -3.855665689526745155e+00
-8.054680158799243372e-01 -4.535597830246439699e+00 9.952294159291140696e-01
1.418559984120076889e+00 -1.319629791055736856e+00 3.224584733258757385e+00
-2.749826915879924449e+00 -3.545616896547988173e+00 3.794637969190340243e+00
2.429045784120077656e+00 3.297434253391275938e+00 -3.065132476373945813e+00
-4.148398615879924201e+00 -3.690758220127347666e+00 1.607056499408451300e+00
-3.811121587992261084e-02 -3.868289357321904820e+00 1.842694531233086241e+00
1.667525384120077003e+00 -1.949686452870511122e+00 1.573583362171978806e+00
-3.486846215879924493e+00 -3.420040227372004971e+00 4.867741773379435921e-01
-7.740883158799249930e-01 1.112493783532224612e+00 -1.574792271354500395e+00
-1.142415715879923299e+00 -1.780495124299401155e+00 3.680334918777947273e+00
1.644438884120077660e+00 1.098663039563922306e+00 -2.815374961384283559e+00
2.838240784120077187e+00 1.730127612312251539e+00 -9.054959546056530195e-01
-2.769797615879923569e+00 -5.089855879558203178e+00 -4.650083173159932914e-01
-1.510750158799226139e-01 -2.220191570614069021e-01 -4.143277672165339709e-01
-4.029120715879924042e+00 -5.395583682650779700e+00 2.070352944687777974e+00
6.542654841200772342e-01 -2.431656435072917954e+00 3.843285165115794655e+00
-3.715558715879924812e+00 -4.845235731075234753e+00 3.938377986497006156e-02
2.131876284120076459e+00 3.690027951115399385e-01 -8.768662464084808761e-01
-3.850181587992267118e-02 1.304032476580637034e+00 -3.277110082528687851e+00
-5.766793158799231600e-01 -6.615308963941398668e-01 1.666709762072763057e-01
-8.650933158799233302e-01 1.366256645953303428e+00 -4.628632077665804090e+00
2.336096841200770713e-01 4.046192158227016833e+00 -8.088699905520412292e-01
1.670870084120076537e+00 1.572734104382724762e+00 -4.522151542797987034e+00
3.882137184120077134e+00 2.687640450084990196e+00 -3.893366413295051842e+00
1.828139384120075261e+00 1.046675212651970055e+00 2.901894739849495863e+00
-2.693070315879924514e+00 -3.450379979392346197e+00 3.998085912025407529e-01
8.061819841200759118e-01 -5.027430024244797790e-01 3.517312239755502112e+00
8.787527841200756251e-01 -3.072529786366957172e+00 1.837359061806775440e+00
-2.513651315879923409e+00 4.688958684278261013e-01 -4.305137527728293279e+00
1.281851841200762065e-01 -2.494865075510911190e+00 6.384613414757621674e-01
7.578787841200750330e-01 -1.817889636692506666e-02 -1.096729914911407366e+00
8.224661841200771040e-01 1.144336547533655324e+00 -3.716471404394508404e+00
1.174352184120075915e+00 4.603671893456889874e-01 -4.403434500427322540e+00
2.693320841200773086e-01 3.586534366968078480e+00 4.254902231851299677e-01
-1.441013415879922377e+00 -9.376246045541073437e-01 3.459829108561918609e+00
-1.321819415879923465e+00 -1.666059349033610082e-01 1.229944343559074005e+00
-2.253969615879924504e+00 -2.927352012449081275e+00 1.279803680743040739e-01
-3.148346815879924154e+00 -5.294216798398623247e+00 -2.368010408045966853e-01
2.004324984120077424e+00 -8.175624679392393679e-01 3.183284859326335425e+00
1.618558384120075244e+00 4.249422872393766037e-01 -8.485074374911498740e-01
8.214407841200767058e-01 2.713292337872642346e+00 1.370337339854941217e+00
2.104683584120075945e+00 5.504982246522213352e+00 -2.512874891907522557e+00
-2.161867615879924820e+00 2.475508961161708932e+00 -4.331408815603358775e+00
-7.577355158799236046e-01 1.965294070634667545e+00 -1.692116025357818687e+00
2.763992984120076990e+00 1.080545227938654873e-01 1.160169997768661698e+00
1.506095084120076422e+00 8.078089312651339782e-01 2.800434316918013256e+00
1.600458484120076630e+00 2.929478133093117442e+00 7.661922978300806930e-01
-3.513922915879922559e+00 -4.578199141772413938e+00 3.333560070062379310e+00
-1.589083215879924182e+00 -2.409955792808242681e+00 3.735897353683674815e+00
-8.486642158799242441e-01 3.629417186430449416e+00 -4.022220038502969608e+00
-1.413114215879923474e+00 -3.811073827287163596e+00 1.569158429744259634e-02
-1.768639158799231725e-01 -3.710053221924982214e+00 3.008361184737790683e+00
-4.714669158799239534e-01 -5.683905631471707132e+00 1.595612442885832927e+00
-3.931450715879924562e+00 -5.197621767176498153e+00 2.309248321174648844e+00
-2.439484515879922988e+00 2.028013123436945175e+00 -3.425900927950119357e+00
-3.290665515879922509e+00 -4.389066720518710163e+00 -9.148421107387889883e-02
-8.482232158799234423e-01 6.650823069657210151e-01 1.406245309894958329e+00
-8.126611587992442487e-02 2.882642696730182141e+00 5.913962645103476579e-01
5.699271841200754807e-01 -2.156906689511942865e+00 3.957802723066614625e+00
-1.720742158799225818e-01 5.827897400808502715e-01 3.322931214787379961e+00
-3.778437115879924590e+00 -5.322986810137753544e+00 4.579901685912762810e-01
1.816205484120075653e+00 -1.575380572460782558e+00 1.367021218345019662e+00
-3.057398315879922279e+00 -1.908017502949146404e+00 2.672549958714139251e+00
1.820470384120076890e+00 1.503882022517048389e+00 2.637466495873843186e+00
-1.938128015879922783e+00 3.116869434320820531e+00 -4.134426190177004301e+00
-3.620496415879924434e+00 -2.651162498397028333e+00 2.425744488142536959e+00
6.443930841200767867e-01 -1.251536475840464790e+00 4.002905000054163942e+00
-7.003487158799230894e-01 3.667917913692813947e+00 -1.935940982058400595e+00
-2.373462715879924190e+00 -2.276359096242441815e+00 8.914826421302863846e-01
2.824397984120076810e+00 2.150605390890687030e+00 -2.788076680133646068e+00
2.908724184120075051e+00 2.714081183666347652e+00 -2.778830145481087754e+00
-2.011679915879923897e+00 -5.400941220091217687e+00 3.166584806862544177e+00
9.663733841200752295e-01 -3.479193443311496825e+00 2.404306632445422309e+00
1.815708412007666084e-02 3.417712897800487148e+00 5.383069484360675228e-01
4.208676884120075457e+00 1.075632814005074156e+00 -4.221094970139167124e+00
-2.209468915879924111e+00 -3.058788150236588788e+00 4.315262681278434487e-01
1.395546684120077430e+00 9.811434369242683085e-01 3.169514283034712943e+00
3.222948384120075893e+00 5.978568559613295363e-01 -3.799247586337841653e+00
3.622295284120076619e+00 2.469210738779911374e+00 -3.297819824683757339e+00
-1.831322158799224553e-01 9.800383708028970187e-01 -1.667805503836781611e+00
-3.247918158799222854e-01 -4.640298932524727360e-01 -1.080990648627885714e-01
-1.642035715879924807e+00 3.477898777170936651e+00 -4.062819273902504413e+00
-1.833898215879923965e+00 -2.683162652926345260e+00 3.714419266974958056e+00
-4.880451587992240547e-02 5.989851190651455326e+00 -3.389743653284989389e+00
-3.106479715879922221e+00 -2.517404078289345648e+00 2.536306628278059527e+00
-2.952094315879924213e+00 -5.284348985839330659e+00 -2.736282186354420665e-01
-2.792350115879924211e+00 -6.021331363845881413e+00 3.369442221033974505e+00
-4.138454515879923079e+00 -4.199070351453208616e+00 8.998794658798286994e-01
9.773520841200763476e-01 -2.981831746011601503e+00 1.902177786488753686e+00
-1.352317115879924314e+00 -2.403082114210180809e+00 4.123866624958695937e+00
-1.445609315879923473e+00 1.764907371054040386e+00 -4.521813937812980022e+00
-1.115111615879922580e+00 2.269739587714853624e+00 -7.534740785950189146e-01
-1.776563315879923222e+00 -5.129152922584269803e+00 -3.755835659554359052e-01
2.168019784120076565e+00 -1.111880501342557004e+00 2.893978056716556502e+00
-1.473915915879922434e+00 -2.129491391517835286e+00 6.053096944943933133e-01
-1.133004115879924667e+00 -3.511629406717976520e-01 7.638599344387851930e-01
-1.556321015879922331e+00 -2.625764185654424043e+00 4.108701836220282289e+00
1.397876684120075153e+00 3.719511007057061391e+00 2.019013024696012515e-01
4.803381841200774494e-01 -4.778267738185232316e-01 -7.566882674932259856e-02
-3.008690158799225967e-01 -4.593084855625134466e+00 2.619849050559398318e+00
2.094074184120077398e+00 9.097726142471144195e-01 -3.527358346435314651e+00
6.691641841200777208e-01 4.607338396185737817e-01 -1.277473879130198053e+00
-6.060860158799243891e-01 3.702257303693010648e+00 -1.636275645185391259e+00
-1.835431715879923376e+00 -5.144031371869798974e+00 3.565300993046020661e+00
2.157704884120076549e+00 -2.043172190470553262e-01 2.398855631277810208e+00
1.598761841200769251e-01 4.433084252336630726e+00 -2.255329873514844596e+00
-2.131803215879924274e+00 -4.230279497979987369e+00 -2.456258010757272348e-01
6.569888412007571232e-02 9.730673211481478679e-01 2.751469810484841627e+00
7.969656841200759567e-01 -2.150855195136301745e+00 7.502686933500750666e-01
1.636852184120076048e+00 1.848478933081187048e+00 2.500944256718962588e+00
2.223685841200762070e-01 2.496163264460043330e+00 1.433190054735336005e+00
2.850580484120075475e+00 2.211242686607826080e+00 -2.338978855881777452e+00
1.253891684120077343e+00 -7.812672177224587733e-01 3.756532397525150113e+00
3.670065841200766954e-01 -3.943270371532821006e+00 2.612108150036875021e+00
-2.113919915879924449e+00 -4.638067836756757600e+00 8.064911900942384193e-03
4.010861884120075160e+00 1.725934529614398638e+00 -4.463018132950978156e+00
2.558841584120076895e+00 1.270245489263848837e+00 -1.889245354492530726e+00
-2.567034215879922865e+00 -4.791203320588757641e+00 -6.023099436978274213e-02
-1.791950315879924371e+00 7.394666886446813470e-01 -3.936184165449646777e+00
-1.847312215879924224e+00 3.270711647727819305e+00 -4.118334897918910720e+00
-3.861905715879922152e+00 -4.347314880228574374e+00 2.994295349129292294e+00
-1.513465215879924219e+00 -3.695496704221285622e+00 4.003860505535866920e+00
1.045186584120077145e+00 1.479440309687427568e-01 -1.402046031895621159e+00
-1.555263615879923123e+00 -3.365693254696545011e+00 3.735299629470362426e+00
1.176085584120076577e+00 4.347129100420184855e+00 -2.925764303069952721e+00
2.299227084120076370e+00 2.109304368228815729e+00 8.295095916585811802e-01
-1.936505915879922712e+00 -1.249865418456855171e+00 2.660903613152917124e+00
-2.394149115879923961e+00 5.652149589672601504e-01 -4.766957858876518017e+00
-1.077021115879924107e+00 -7.097885563696804123e-01 3.034690676197360659e+00
1.670275084120075304e+00 -4.749643711155545067e-01 3.482660240337533963e+00
6.106024841200763387e-01 -1.787953110546590452e+00 1.562420989839540530e-01
-8.871209158799245875e-01 -4.982496568747228238e+00 2.456916801044311871e+00
-3.738442158799245019e-01 -3.396249093418874931e+00 3.437481800014862809e+00
6.826819841200773009e-01 2.662931542744492841e+00 1.421085508876005488e+00
1.767853484120075702e+00 7.772871023181137096e-01 2.634328777283302170e+00
9.753073841200773364e-01 7.274713570502275850e-01 -2.162433704388569744e+00
-1.105948715879924382e+00 -3.468506542450588537e+00 4.017459351906528475e+00
-5.407479158799247676e-01 1.376970213589054248e+00 -1.582776282870370199e+00
1.552379484120075315e+00 1.194967499578044379e+00 -4.674528969636888576e+00
7.562064841200765164e-01 2.814982592959573982e+00 1.770132711515563617e+00
-1.124268415879924987e+00 1.167234118601710557e+00 1.038011188873094293e+00
2.074385784120076348e+00 -1.216311684516269809e+00 1.939292040450979915e+00
2.159613684120077259e+00 3.881305895439297160e+00 -1.605624341806880295e+00
-1.775949915879923013e+00 -3.071498782042283437e+00 3.953644297796607421e-01
-3.233579315879924643e+00 -3.867478691256916790e+00 3.111638463010748090e+00
-2.694695158799248480e-01 2.902102509029261146e+00 2.446639162827635994e-01
-3.392953158799230096e-01 1.260171208533293896e+00 -2.157850363963653262e+00
-1.085727815879923286e+00 1.763316378883984736e+00 -1.169624843371302791e+00
-2.357216158799246841e-01 -2.948419592306293247e+00 6.991752715364052406e-01
-1.095533015879922800e+00 3.715102378798194049e+00 -2.816176025637517899e+00
-1.166072915879922789e+00 7.754127603088049048e-01 1.461684683315292332e+00
-1.644971515879924961e+00 -2.747017518025850702e+00 4.679644462589867548e-01
-7.459420158799247025e-01 2.130061006937781887e+00 -2.533288045784161113e+00
-7.903985158799230470e-01 2.744108873932803672e+00 -3.807298206735000967e+00
1.377661841200762127e-01 1.190633616660816241e+00 2.631142870273040835e+00
-1.733300158799238599e-01 -2.569968854829692839e-01 3.376683403691131957e+00
1.439578412007733697e-02 2.798428540779752005e+00 1.491310055937079770e+00
2.834097841200758916e-01 -2.453674887008499894e+00 3.029162241147339563e-01
1.760997684120076290e+00 3.680930615278971807e+00 -1.320949935301815703e+00
-1.146077815879922968e+00 6.177198684022785491e-01 1.958060971481556223e+00
-9.012337158799226255e-01 3.985995248679146119e-01 1.634994324350917738e+00
-2.626236815879923192e+00 -2.277562708971514915e+00 3.082407581194355650e+00
2.630457184120075453e+00 1.305470264685979931e+00 -1.554604294132299058e+00
-1.278844515879924870e+00 2.276743380133947059e-01 2.047603652631856175e+00
1.139264584120076140e+00 2.053592764414305716e+00 2.065522485615830739e+00
3.764227841200750158e-01 6.190127692927845260e+00 -2.988362240216092314e+00
1.828024984120077079e+00 1.201478469413157280e+00 2.350868196795842469e+00
1.369374784120077404e+00 -2.472774878728945858e+00 2.420261472288470550e+00
3.896929084120077214e+00 2.550460384257112079e+00 -3.480395380221182222e+00
-3.611718158799249179e-01 2.562488495655523835e-01 2.962099883867161054e+00
2.551169841200760513e-01 -2.109581056513559538e+00 1.970680724420269259e-01
2.488933484120076312e+00 7.351068717145637921e-01 1.241325701491908129e+00
4.199953384120076016e+00 9.484722540381504974e-01 -3.846254050225400789e+00
-2.903263215879923198e+00 -1.691766636434520077e+00 2.618169119319985416e+00
-2.547263415879922555e+00 -6.238637762381626040e+00 3.287825980513145563e+00
1.624770284120077735e+00 6.293359670751456747e+00 -3.308418801146197019e+00
1.147479984120076235e+00 6.531141231813373693e+00 -2.919434485424433845e+00
-1.901831915879924395e+00 -9.864908613105483060e-01 1.247719793584367354e+00
5.054571841200754534e-01 5.575935456754959496e+00 -3.500652039917091507e+00
2.344542584120077322e+00 3.506089336607258744e-01 -4.975328562337583693e-01
-1.090558715879925034e+00 2.163079600217434173e+00 -2.819680076815688441e+00
1.203845884120076537e+00 4.089244114400648833e+00 -6.885252777149840631e-01
