x,y,z,r,g,b,timestamp
0.13423848152160645,-0.045225389301776886,0.5895000100135803,125,142,143,1753999595.3821893
0.13687744736671448,-0.045244574546813965,0.5897500514984131,124,143,145,1753999595.3821893
0.13945946097373962,-0.045244574546813965,0.5897500514984131,125,143,141,1753999595.3821893
0.14198125898838043,-0.045225389301776886,0.5895000100135803,125,143,141,1753999595.3821893
0.14450089633464813,-0.045206211507320404,0.5892500281333923,125,142,145,1753999595.3821893
0.14708073437213898,-0.045206211507320404,0.5892500281333923,127,144,145,1753999595.3821893
0.14953355491161346,-0.04516785219311714,0.5887500047683716,124,136,138,1753999595.3821893
0.15191742777824402,-0.0451103113591671,0.5879999995231628,120,140,137,1753999595.3821893
0.1542290598154068,-0.04503359645605087,0.5870000123977661,118,137,137,1753999595.3821893
0.15666548907756805,-0.04499523714184761,0.5865000486373901,118,137,139,1753999595.3821893
0.15909752249717712,-0.04495687782764435,0.5860000252723694,118,132,134,1753999595.3821893
0.16159416735172272,-0.044937700033187866,0.5857500433921814,113,130,133,1753999595.3821893
0.1638784259557724,-0.04486098140478134,0.5847500562667847,106,123,124,1753999595.3821893
0.16629624366760254,-0.04482262209057808,0.5842500329017639,97,115,113,1753999595.3821893
0.16805940866470337,-0.044611647725105286,0.5815000534057617,26,33,37,1753999595.3821893
0.16928504407405853,-0.044266413897275925,0.5770000219345093,39,44,51,1753999595.3821893
0.17136459052562714,-0.04415133595466614,0.5755000114440918,41,49,46,1753999595.3821893
0.17108939588069916,-0.04344169422984123,0.5662500262260437,65,55,55,1753999595.3821893
0.17065656185150146,-0.04271286725997925,0.5567499995231628,95,48,49,1753999595.3821893
0.16967420279979706,-0.041868969798088074,0.5457500219345093,108,56,61,1753999595.3821893
0.17088128626346588,-0.041581280529499054,0.5420000553131104,120,56,65,1753999595.3821893
0.17469270527362823,-0.04192650690674782,0.546500027179718,100,49,62,1753999595.3821893
0.18461918830871582,-0.04371020570397377,0.5697500109672546,102,121,123,1753999595.3821893
0.19089041650295258,-0.044592466205358505,0.581250011920929,62,80,87,1753999595.3821893
0.19418400526046753,-0.044765081256628036,0.5835000276565552,49,67,65,1753999595.3821893
0.1963171809911728,-0.04466918110847473,0.5822499990463257,46,63,64,1753999595.3821893
0.19792711734771729,-0.044458210468292236,0.5795000195503235,54,71,85,1753999595.3821893
0.1999453753232956,-0.04434313252568245,0.578000009059906,110,139,140,1753999595.3821893
0.20203809440135956,-0.04424723610281944,0.5767500400543213,96,116,127,1753999595.3821893
0.2046518623828888,-0.044266413897275925,0.5770000219345093,114,137,144,1753999595.3821893
0.2086143046617508,-0.04457328841090202,0.581000030040741,104,122,129,1753999595.3821893
0.22042571008205414,-0.04652960225939751,0.6065000295639038,84,101,104,1753999595.3821893
0.2529661953449249,-0.0527629591524601,0.6877500414848328,103,107,100,1753999595.3821893
0.2561633884906769,-0.05280131474137306,0.6882500052452087,111,108,92,1753999595.3821893
0.2592708170413971,-0.05282049626111984,0.6885000467300415,113,110,94,1753999595.3821893
0.26228517293930054,-0.05282049626111984,0.6885000467300415,120,117,101,1753999595.3821893
0.265395849943161,-0.052839674055576324,0.6887500286102295,123,118,100,1753999595.3821893
0.2685087323188782,-0.052858851850032806,0.6890000104904175,125,118,101,1753999595.3821893
0.2715252935886383,-0.052858851850032806,0.6890000104904175,124,117,100,1753999595.3821893
0.27454185485839844,-0.052858851850032806,0.6890000104904175,122,119,103,1753999595.3821893
0.27735698223114014,-0.05282049626111984,0.6885000467300415,125,117,103,1753999595.3821893
0.28047317266464233,-0.052839674055576324,0.6887500286102295,131,121,107,1753999595.3821893
0.28359150886535645,-0.052858851850032806,0.6890000104904175,127,120,110,1753999595.3821893
0.2865040898323059,-0.052839674055576324,0.6887500286102295,122,119,105,1753999595.3821893
0.2886788547039032,-0.052686240524053574,0.686750054359436,130,124,111,1753999595.3821893
0.2909422516822815,-0.052551984786987305,0.6850000619888306,124,118,103,1753999595.3821893
0.2936194837093353,-0.05249444395303726,0.6842500567436218,125,119,104,1753999595.3821893
0.29683196544647217,-0.052532803267240524,0.6847500205039978,123,117,102,1753999595.3821893
0.2999393939971924,-0.052551984786987305,0.6850000619888306,124,117,98,1753999595.3821893
0.30293846130371094,-0.052551984786987305,0.6850000619888306,122,117,99,1753999595.3821893
0.306049108505249,-0.05257116258144379,0.6852500438690186,121,115,100,1753999595.3821893
0.3091620206832886,-0.05259034037590027,0.6855000257492065,125,120,100,1753999595.3821893
0.31204941868782043,-0.05257116258144379,0.6852500438690186,126,119,100,1753999595.3821893
0.31481966376304626,-0.052532803267240524,0.6847500205039978,121,114,97,1753999595.3821893
0.3174695074558258,-0.05247526243329048,0.6840000152587891,121,119,96,1753999595.3821893
0.32069841027259827,-0.05251362547278404,0.6845000386238098,121,116,96,1753999595.3821893
0.3239317238330841,-0.052551984786987305,0.6850000619888306,123,117,104,1753999595.3821893
0.32681143283843994,-0.052532803267240524,0.6847500205039978,125,118,108,1753999595.3821893
0.32968899607658386,-0.05251362547278404,0.6845000386238098,127,122,102,1753999595.3821893
0.3325643539428711,-0.05249444395303726,0.6842500567436218,128,123,103,1753999595.3821893
0.33531489968299866,-0.052456084638834,0.6837500333786011,127,122,104,1753999595.3821893
0.33818477392196655,-0.05243690684437752,0.6835000514984131,128,123,105,1753999595.3821893
0.3408028781414032,-0.052379366010427475,0.6827500462532043,123,118,100,1753999595.3821893
0.3437920808792114,-0.052379366010427475,0.6827500462532043,126,120,96,1753999595.3821893
0.34601935744285583,-0.05226428806781769,0.6812500357627869,125,117,91,1753999595.3821893
0.34887394309043884,-0.052245110273361206,0.6810000538825989,125,120,91,1753999595.3821893
0.35095128417015076,-0.05211085453629494,0.6792500615119934,121,113,89,1753999595.3821893
-0.1756257563829422,-0.044656794518232346,0.6172500252723694,117,141,143,1753999595.3821893
-0.1669701188802719,-0.0431194007396698,0.5960000157356262,119,147,151,1753999595.3821893
-0.16132722795009613,-0.04232357442378998,0.5850000381469727,91,116,121,1753999595.3821893
-0.15890169143676758,-0.042359743267297745,0.5855000019073486,128,151,156,1753999595.3821893
-0.15700580179691315,-0.04254061356186867,0.5879999995231628,44,70,72,1753999595.3821893
-0.15554769337177277,-0.042848095297813416,0.5922500491142273,41,58,63,1753999595.3821893
-0.1554727554321289,-0.043553490191698074,0.6020000576972961,68,77,70,1753999595.3821893
-0.15271015465259552,-0.04351731389760971,0.6015000343322754,103,117,108,1753999595.3821893
-0.14970242977142334,-0.04340879246592522,0.6000000238418579,125,148,142,1753999595.3821893
-0.1441340148448944,-0.04254061356186867,0.5879999995231628,130,145,144,1753999595.3821893
-0.13812899589538574,-0.041509658098220825,0.5737500190734863,112,64,72,1753999595.3821893
-0.13224877417087555,-0.040478698909282684,0.5595000386238098,126,52,60,1753999595.3821893
-0.12979918718338013,-0.040478698909282684,0.5595000386238098,90,33,42,1753999595.3821893
-0.12757721543312073,-0.04055104777216911,0.5605000257492065,82,40,39,1753999595.3821893
-0.1279136836528778,-0.04145539551973343,0.5730000138282776,32,32,28,1753999595.3821893
-0.12950856983661652,-0.04281192272901535,0.5917500257492065,27,31,26,1753999595.3821893
-0.12697140872478485,-0.042830005288124084,0.5920000076293945,25,29,24,1753999595.3821893
-0.1244845911860466,-0.04286618158221245,0.5925000309944153,63,71,68,1753999595.3821893
-0.12204481661319733,-0.042920444160699844,0.593250036239624,71,84,81,1753999595.3821893
-0.11964881420135498,-0.042992789298295975,0.5942500233650208,78,87,80,1753999595.3821893
-0.11724404990673065,-0.043065138161182404,0.5952500104904175,76,89,86,1753999595.3821893
-0.11468610912561417,-0.043083228170871735,0.5955000519752502,93,104,102,1753999595.3821893
-0.11212596297264099,-0.04310131445527077,0.5957500338554382,112,123,123,1753999595.3821893
-0.10947170853614807,-0.043083228170871735,0.5955000519752502,118,141,137,1753999595.3821893
-0.10686451941728592,-0.043083228170871735,0.5955000519752502,124,144,139,1753999595.3821893
-0.10421354323625565,-0.043065138161182404,0.5952500104904175,126,146,141,1753999595.3821893
-0.10165012627840042,-0.043083228170871735,0.5955000519752502,127,147,142,1753999595.3821893
-0.09908450394868851,-0.04310131445527077,0.5957500338554382,124,149,144,1753999595.3821893
-0.0965166911482811,-0.0431194007396698,0.5960000157356262,129,152,144,1753999595.3821893
-0.09390731155872345,-0.0431194007396698,0.5960000157356262,128,151,147,1753999595.3821893
-0.09125962853431702,-0.04310131445527077,0.5957500338554382,129,152,148,1753999595.3821893
-0.08861413598060608,-0.043083228170871735,0.5955000519752502,130,153,147,1753999595.3821893
-0.08597083389759064,-0.043065138161182404,0.5952500104904175,129,152,146,1753999595.3821893
-0.0833297148346901,-0.04304705187678337,0.5950000286102295,131,154,148,1753999595.3821893
-0.08072471618652344,-0.04304705187678337,0.5950000286102295,132,155,149,1753999595.3821893
-0.07811970263719559,-0.04304705187678337,0.5950000286102295,129,152,148,1753999595.3821893
-0.07551468908786774,-0.04304705187678337,0.5950000286102295,129,153,151,1753999595.3821893
-0.07290969043970108,-0.04304705187678337,0.5950000286102295,129,156,151,1753999595.3821893
-0.07027514278888702,-0.04302896559238434,0.5947500467300415,129,154,149,1753999595.3821893
-0.06761433184146881,-0.042992789298295975,0.5942500233650208,130,155,150,1753999595.3821893
-0.0650126114487648,-0.042992789298295975,0.5942500233650208,130,155,150,1753999595.3821893
-0.06238463521003723,-0.04297470673918724,0.5940000414848328,129,153,151,1753999595.3821893
-0.05978400632739067,-0.04297470673918724,0.5940000414848328,133,158,153,1753999595.3821893
-0.05718337371945381,-0.04297470673918724,0.5940000414848328,132,159,154,1753999595.3821893
-0.05458274483680725,-0.04297470673918724,0.5940000414848328,130,155,150,1753999595.3821893
-0.05200399085879326,-0.042992789298295975,0.5942500233650208,133,158,153,1753999595.3821893
-0.04940226674079895,-0.042992789298295975,0.5942500233650208,131,158,153,1753999595.3821893
-0.04680054634809494,-0.042992789298295975,0.5942500233650208,128,155,150,1753999595.3821893
-0.04419881850481033,-0.042992789298295975,0.5942500233650208,131,158,153,1753999595.3821893
-0.041597094386816025,-0.042992789298295975,0.5942500233650208,132,158,156,1753999595.3821893
-0.03897896781563759,-0.04297470673918724,0.5940000414848328,133,157,155,1753999595.3821893
-0.03636302426457405,-0.04295661672949791,0.59375,133,157,155,1753999595.3821893
-0.03376349061727524,-0.04295661672949791,0.59375,126,155,154,1753999595.3821893
-0.031150834634900093,-0.04293853044509888,0.593500018119812,126,155,152,1753999595.3821893
-0.028540367260575294,-0.042920444160699844,0.593250036239624,134,159,152,1753999595.3821893
-0.02593209035694599,-0.04290235787630081,0.593000054359436,131,158,153,1753999595.3821893
-0.023325998336076736,-0.04288426786661148,0.5927500128746033,131,158,153,1753999595.3821893
-0.020722098648548126,-0.04286618158221245,0.5925000309944153,131,155,153,1753999595.3821893
-0.018128037452697754,-0.04286618158221245,0.5925000309944153,129,154,149,1753999595.3821893
-0.015533974394202232,-0.04286618158221245,0.5925000309944153,130,155,148,1753999595.3821893
-0.012939912267029285,-0.04286618158221245,0.5925000309944153,130,155,150,1753999595.3821893
-0.010345849208533764,-0.04286618158221245,0.5925000309944153,129,154,147,1753999595.3821893
-0.007748517207801342,-0.042848095297813416,0.5922500491142273,129,154,147,1753999595.3821893
-0.005155548918992281,-0.042848095297813416,0.5922500491142273,128,152,150,1753999595.3821893
-0.002560417866334319,-0.04281192272901535,0.5917500257492065,129,154,149,1753999595.3821893
3.0270899515016936e-05,-0.042685311287641525,0.5900000333786011,128,152,150,1753999595.3821893
0.002603421453386545,-0.042522527277469635,0.5877500176429749,129,153,151,1753999595.3821893
0.0051788887940347195,-0.04254061356186867,0.5879999995231628,127,152,147,1753999595.3821893
0.007763138972222805,-0.042594876140356064,0.5887500047683716,125,148,144,1753999595.3821893
0.010362737812101841,-0.042685311287641525,0.5900000333786011,128,150,149,1753999595.3821893
0.012956826016306877,-0.04272148758172989,0.5905000567436218,120,150,144,1753999595.3821893
0.015561871230602264,-0.04277574643492699,0.5912500023841858,122,149,144,1753999595.3821893
0.01817348413169384,-0.042830005288124084,0.5920000076293945,129,149,146,1753999595.3821893
0.020765358582139015,-0.042830005288124084,0.5920000076293945,129,152,148,1753999595.3821893
0.02336709573864937,-0.042848095297813416,0.5922500491142273,129,154,149,1753999595.3821893
0.025949105620384216,-0.042830005288124084,0.5920000076293945,127,153,151,1753999595.3821893
0.028553031384944916,-0.042848095297813416,0.5922500491142273,130,153,149,1753999595.3821893
0.031132850795984268,-0.042830005288124084,0.5920000076293945,129,154,149,1753999595.3821893
0.033724721521139145,-0.042830005288124084,0.5920000076293945,131,155,153,1753999595.3821893
0.03630125895142555,-0.04281192272901535,0.5917500257492065,129,153,151,1753999595.3821893
0.03889203816652298,-0.04281192272901535,0.5917500257492065,130,155,150,1753999595.3821893
0.04146529734134674,-0.04279383644461632,0.5915000438690186,130,155,150,1753999595.3821893
0.04403635486960411,-0.04277574643492699,0.5912500023841858,126,150,150,1753999595.3821893
0.04660522937774658,-0.042757660150527954,0.5910000205039978,130,155,150,1753999595.3821893
0.049171917140483856,-0.04273957386612892,0.5907500386238098,130,155,150,1753999595.3821893
0.05175832286477089,-0.04273957386612892,0.5907500386238098,128,152,150,1753999595.3821893
0.054344721138477325,-0.04273957386612892,0.5907500386238098,130,152,151,1753999595.3821893
0.05693111941218376,-0.04273957386612892,0.5907500386238098,128,152,150,1753999595.3821893
0.059517521411180496,-0.04273957386612892,0.5907500386238098,129,153,151,1753999595.3821893
0.06207764148712158,-0.04272148758172989,0.5905000567436218,128,152,152,1753999595.3821893
0.06458082050085068,-0.04266722872853279,0.5897500514984131,127,151,149,1753999595.3821893
0.06710589677095413,-0.04263105243444443,0.5892500281333923,126,152,152,1753999595.3821893
0.0695970356464386,-0.04257678985595703,0.5885000228881836,129,154,149,1753999595.3821893
0.07211225479841232,-0.04254061356186867,0.5879999995231628,125,147,146,1753999595.3821893
0.07468662410974503,-0.04254061356186867,0.5879999995231628,126,151,146,1753999595.3821893
0.07726097851991653,-0.04254061356186867,0.5879999995231628,130,152,151,1753999595.3821893
0.07983534038066864,-0.04254061356186867,0.5879999995231628,128,150,149,1753999595.3821893
0.08244474977254868,-0.042558703571558,0.5882500410079956,129,151,152,1753999595.3821893
0.0850924551486969,-0.042594876140356064,0.5887500047683716,129,152,148,1753999595.3821893
0.08767010271549225,-0.042594876140356064,0.5887500047683716,128,150,151,1753999595.3821893
0.090247742831707,-0.042594876140356064,0.5887500047683716,127,149,148,1753999595.3821893
0.09266772866249084,-0.042522527277469635,0.5877500176429749,127,151,149,1753999595.3821893
0.0950789600610733,-0.042450182139873505,0.5867500305175781,124,146,147,1753999595.3821893
0.09756462275981903,-0.04241400584578514,0.5862500071525574,122,146,148,1753999595.3821893
0.1001313254237175,-0.04241400584578514,0.5862500071525574,126,145,147,1753999595.3821893
0.10269802063703537,-0.04241400584578514,0.5862500071525574,126,145,145,1753999595.3821893
0.10535450279712677,-0.042450182139873505,0.5867500305175781,129,149,146,1753999595.3821893
0.10787741839885712,-0.04243209585547447,0.5865000486373901,124,146,149,1753999595.3821893
0.1104922816157341,-0.042450182139873505,0.5867500305175781,127,149,152,1753999595.3821893
0.11310933530330658,-0.04246826842427254,0.5870000123977661,126,146,143,1753999595.3821893
0.1156793162226677,-0.04246826842427254,0.5870000123977661,126,146,143,1753999595.3821893
0.1181989461183548,-0.042450182139873505,0.5867500305175781,129,149,146,1753999595.3821893
0.12081928551197052,-0.04246826842427254,0.5870000123977661,126,145,145,1753999595.3821893
0.12344182282686234,-0.04248635843396187,0.5872500538825989,127,147,144,1753999595.3821893
0.1260129064321518,-0.04248635843396187,0.5872500538825989,127,147,144,1753999595.3821893
0.12858398258686066,-0.04248635843396187,0.5872500538825989,125,145,142,1753999595.3821893
0.13121089339256287,-0.0425044447183609,0.5875000357627869,126,144,140,1753999595.3821893
0.13378305733203888,-0.0425044447183609,0.5875000357627869,126,145,145,1753999595.3821893
0.13641324639320374,-0.042522527277469635,0.5877500176429749,126,143,144,1753999595.3821893
0.1388682872056961,-0.04248635843396187,0.5872500538825989,126,144,142,1753999595.3821893
0.14137913286685944,-0.04246826842427254,0.5870000123977661,120,142,143,1753999595.3821893
0.14388781785964966,-0.042450182139873505,0.5867500305175781,125,139,141,1753999595.3821893
0.14626950025558472,-0.04239591956138611,0.5860000252723694,125,143,141,1753999595.3821893
0.14883510768413544,-0.04239591956138611,0.5860000252723694,121,136,133,1753999595.3821893
0.15120694041252136,-0.04234166070818901,0.5852500200271606,125,138,137,1753999595.3821893
0.15363790094852448,-0.042305488139390945,0.5847500562667847,122,136,140,1753999595.3821893
0.15613125264644623,-0.042287398129701614,0.5845000147819519,123,137,139,1753999595.3821893
0.15855452418327332,-0.04225122556090355,0.5840000510215759,115,137,140,1753999595.3821893
0.1609734296798706,-0.042215049266815186,0.5835000276565552,113,133,128,1753999595.3821893
0.16324785351753235,-0.042142704129219055,0.5825000405311584,108,123,120,1753999595.3821893
0.16558465361595154,-0.04208844155073166,0.5817500352859497,95,117,116,1753999595.3821893
0.16762588918209076,-0.04196183383464813,0.5800000429153442,36,47,43,1753999595.3821893
0.16855157911777496,-0.04156391695141792,0.5745000243186951,34,42,41,1753999595.3821893
0.17091794312000275,-0.04152774438261986,0.5740000009536743,40,46,48,1753999595.3821893
0.1731288731098175,-0.04145539551973343,0.5730000138282776,60,51,56,1753999595.3821893
0.17080983519554138,-0.040315914899110794,0.5572500228881836,94,47,46,1753999595.3821893
0.1700628399848938,-0.03957435116171837,0.5470000505447388,100,44,48,1753999595.3821893
0.1699354499578476,-0.038995563983917236,0.5390000343322754,119,50,61,1753999595.3821893
0.1724550873041153,-0.0390317365527153,0.5394999980926514,113,44,59,1753999595.3821893
0.18016372621059418,-0.04022548347711563,0.5560000538825989,118,117,126,1753999595.3821893
0.19039778411388397,-0.0419437438249588,0.5797500014305115,66,88,91,1753999595.3821893
0.19276964664459229,-0.041907571256160736,0.5792500376701355,62,76,78,1753999595.3821893
0.195558562874794,-0.04196183383464813,0.5800000429153442,52,64,70,1753999595.3821893
0.19715863466262817,-0.04176287353038788,0.5772500038146973,43,59,67,1753999595.3821893
0.19890761375427246,-0.04160009324550629,0.5750000476837158,108,139,139,1753999595.3821893
0.2010747343301773,-0.04152774438261986,0.5740000009536743,86,111,118,1753999595.3821893
0.20332181453704834,-0.04147348552942276,0.5732500553131104,110,135,142,1753999595.3821893
0.20870405435562134,-0.042052265256643295,0.581250011920929,112,131,135,1753999595.3821893
0.2116122990846634,-0.042124614119529724,0.5822499990463257,98,114,122,1753999595.3821893
0.25140300393104553,-0.049449849873781204,0.6835000514984131,100,103,102,1753999595.3821893
0.25579118728637695,-0.04972115159034729,0.687250018119812,106,107,96,1753999595.3821893
0.25880008935928345,-0.04972115159034729,0.687250018119812,108,101,93,1753999595.3821893
0.26171374320983887,-0.049703069031238556,0.687000036239624,114,107,97,1753999595.3821893
0.2642398476600647,-0.049612630158662796,0.6857500076293945,122,117,99,1753999595.3821893
0.2671447694301605,-0.04959454387426376,0.6855000257492065,118,110,96,1753999595.3821893
0.2699489891529083,-0.049558375030756,0.6850000619888306,118,111,94,1753999595.3821893
0.27314725518226624,-0.04959454387426376,0.6855000257492065,119,112,95,1753999595.3821893
0.27634990215301514,-0.04963072016835213,0.6860000491142273,119,116,100,1753999595.3821893
0.27955690026283264,-0.04966689273715019,0.6865000128746033,121,121,101,1753999595.3821893
0.2827683389186859,-0.049703069031238556,0.687000036239624,128,122,109,1753999595.3821893
0.2851521670818329,-0.04959454387426376,0.6855000257492065,128,120,106,1753999595.3821893
0.2868923246860504,-0.049377501010894775,0.6825000047683716,125,118,101,1753999595.3821893
0.2896680533885956,-0.04934132844209671,0.6820000410079956,125,118,101,1753999595.3821893
0.2928684949874878,-0.049377501010894775,0.6825000047683716,121,114,97,1753999595.3821893
0.29618173837661743,-0.04943175986409187,0.6832500100135803,116,113,99,1753999595.3821893
0.29939204454421997,-0.04946793615818024,0.6837500333786011,118,115,99,1753999595.3821893
0.3023856282234192,-0.04946793615818024,0.6837500333786011,121,115,100,1753999595.3821893
0.305379182100296,-0.04946793615818024,0.6837500333786011,127,122,104,1753999595.3821893
0.3078089952468872,-0.049377501010894775,0.6825000047683716,121,116,98,1753999595.3821893
0.3106832504272461,-0.04935941472649574,0.6822500228881836,122,117,99,1753999595.3821893
0.31321051716804504,-0.049287065863609314,0.6812500357627869,124,119,99,1753999595.3821893
0.3160771131515503,-0.04926897957921028,0.6810000538825989,123,116,99,1753999595.3821893
0.3190586268901825,-0.04926897957921028,0.6810000538825989,125,120,100,1753999595.3821893
0.32251304388046265,-0.04934132844209671,0.6820000410079956,123,118,96,1753999595.3821893
0.32621487975120544,-0.049449849873781204,0.6835000514984131,125,123,104,1753999595.3821893
0.3293277621269226,-0.04946793615818024,0.6837500333786011,123,121,102,1753999595.3821893
0.33232131600379944,-0.04946793615818024,0.6837500333786011,125,123,104,1753999595.3821893
0.3350696861743927,-0.04943175986409187,0.6832500100135803,126,123,107,1753999595.3821893
0.3374425768852234,-0.04934132844209671,0.6820000410079956,129,124,102,1753999595.3821893
0.33992934226989746,-0.04926897957921028,0.6810000538825989,124,120,95,1753999595.3821893
0.34278497099876404,-0.04925088956952095,0.6807500123977661,125,119,93,1753999595.3821893
0.3452574908733368,-0.04917854443192482,0.6797500252723694,124,118,92,1753999595.3821893
0.3478493392467499,-0.049124281853437424,0.6790000200271606,128,123,94,1753999595.3821893
0.35056376457214355,-0.04908810928463936,0.6785000562667847,125,116,97,1753999595.3821893
-0.21120288968086243,-0.047533437609672546,0.6992500424385071,128,116,96,1753999595.3821893
-0.20814144611358643,-0.047533437609672546,0.6992500424385071,138,129,112,1753999595.3821893
-0.20515333116054535,-0.04755043238401413,0.6995000243186951,140,131,112,1753999595.3821893
-0.19674602150917053,-0.04629284515976906,0.6810000538825989,94,116,115,1753999595.3821893
-0.17214027047157288,-0.04112653434276581,0.6050000190734863,113,139,141,1753999595.3821893
-0.1637483686208725,-0.03973299264907837,0.5845000147819519,128,153,158,1753999595.3821893
-0.1610514521598816,-0.0396990031003952,0.5840000510215759,102,125,132,1753999595.3821893
-0.15849460661411285,-0.0396990031003952,0.5840000510215759,132,158,160,1753999595.3821893
-0.15613801777362823,-0.03974998742341995,0.5847500562667847,49,70,76,1753999595.3821893
-0.1552850306034088,-0.04019184038043022,0.5912500023841858,43,59,67,1753999595.3821893
-0.15521448850631714,-0.040854621678590775,0.6010000109672546,77,85,84,1753999595.3821893
-0.15226586163043976,-0.04076965153217316,0.5997500419616699,101,115,117,1753999595.3821893
-0.14932817220687866,-0.04068467766046524,0.5985000133514404,124,148,148,1753999595.3821893
-0.1440114676952362,-0.03993692621588707,0.5875000357627869,131,133,139,1753999595.3821893
-0.13668452203273773,-0.03859436511993408,0.5677500367164612,120,53,67,1753999595.3821893
-0.13171693682670593,-0.03788059949874878,0.5572500228881836,118,47,56,1753999595.3821893
-0.1294512003660202,-0.03793158009648323,0.5580000281333923,88,36,43,1753999595.3821893
-0.12746340036392212,-0.0380675345659256,0.5600000023841858,78,38,41,1753999595.3821893
-0.12808111310005188,-0.03900223225355148,0.5737500190734863,31,32,28,1753999595.3821893
-0.12928971648216248,-0.040157854557037354,0.5907500386238098,22,29,23,1753999595.3821893
-0.12681055068969727,-0.04019184038043022,0.5912500023841858,21,25,20,1753999595.3821893
-0.12432701140642166,-0.04022582992911339,0.5917500257492065,66,74,75,1753999595.3821893
-0.12183909863233566,-0.040259819477796555,0.5922500491142273,70,86,77,1753999595.3821893
-0.11934679746627808,-0.04029380530118942,0.5927500128746033,74,88,79,1753999595.3821893
-0.1168501228094101,-0.04032779857516289,0.593250036239624,85,93,90,1753999595.3821893
-0.1143009290099144,-0.04034478962421417,0.593500018119812,98,107,100,1753999595.3821893
-0.11160838603973389,-0.040310803800821304,0.593000054359436,118,131,126,1753999595.3821893
-0.108966164290905,-0.04029380530118942,0.5927500128746033,123,141,139,1753999595.3821893
-0.1063261553645134,-0.04027681425213814,0.5925000309944153,125,145,142,1753999595.3821893
-0.10381963104009628,-0.040310803800821304,0.593000054359436,127,149,148,1753999595.3821893
-0.1012660562992096,-0.04032779857516289,0.593250036239624,127,147,144,1753999595.3821893
-0.09875185787677765,-0.040361784398555756,0.59375,130,148,146,1753999595.3821893
-0.09619281440973282,-0.04037878289818764,0.5940000414848328,128,151,147,1753999595.3821893
-0.09359218925237656,-0.04037878289818764,0.5940000414848328,132,152,147,1753999595.3821893
-0.0909915566444397,-0.04037878289818764,0.5940000414848328,132,152,147,1753999595.3821893
-0.08839092403650284,-0.04037878289818764,0.5940000414848328,130,153,147,1753999595.3821893
-0.08575418591499329,-0.040361784398555756,0.59375,130,153,149,1753999595.3821893
-0.08315464854240417,-0.040361784398555756,0.59375,130,153,149,1753999595.3821893
-0.08052120357751846,-0.04034478962421417,0.593500018119812,134,154,151,1753999595.3821893
-0.0779227614402771,-0.04034478962421417,0.593500018119812,132,155,149,1753999595.3821893
-0.07529258728027344,-0.04032779857516289,0.593250036239624,129,152,144,1753999595.3821893
-0.07266461849212646,-0.040310803800821304,0.593000054359436,130,152,153,1753999595.3821893
-0.070068359375,-0.040310803800821304,0.593000054359436,131,153,152,1753999595.3821893
-0.06744366139173508,-0.04029380530118942,0.5927500128746033,131,155,153,1753999595.3821893
-0.06482115387916565,-0.04027681425213814,0.5925000309944153,134,156,155,1753999595.3821893
-0.062227096408605576,-0.04027681425213814,0.5925000309944153,134,157,153,1753999595.3821893
-0.0596330352127552,-0.04027681425213814,0.5925000309944153,132,154,153,1753999595.3821893
-0.05703897029161453,-0.04027681425213814,0.5925000309944153,129,156,151,1753999595.3821893
-0.05444490537047386,-0.04027681425213814,0.5925000309944153,129,159,153,1753999595.3821893
-0.051872722804546356,-0.04029380530118942,0.5927500128746033,127,157,151,1753999595.3821893
-0.049298353493213654,-0.040310803800821304,0.593000054359436,131,158,153,1753999595.3821893
-0.046702101826667786,-0.040310803800821304,0.593000054359436,131,156,151,1753999595.3821893
-0.04410584643483162,-0.040310803800821304,0.593000054359436,131,158,153,1753999595.3821893
-0.04150959849357605,-0.040310803800821304,0.593000054359436,132,159,154,1753999595.3821893
-0.038896940648555756,-0.04029380530118942,0.5927500128746033,133,158,151,1753999595.3821893
-0.03628646954894066,-0.04027681425213814,0.5925000309944153,134,157,151,1753999595.3821893
-0.033678196370601654,-0.040259819477796555,0.5922500491142273,130,153,149,1753999595.3821893
-0.0310721043497324,-0.04024282470345497,0.5920000076293945,128,155,148,1753999595.3821893
-0.02846820279955864,-0.04022582992911339,0.5917500257492065,129,159,151,1753999595.3821893
-0.025866493582725525,-0.040208835154771805,0.5915000438690186,131,158,153,1753999595.3821893
-0.023266969248652458,-0.04019184038043022,0.5912500023841858,131,157,157,1753999595.3821893
-0.020669637247920036,-0.04017484560608864,0.5910000205039978,134,159,154,1753999595.3821893
-0.01806684583425522,-0.04014085978269577,0.5905000567436218,131,156,147,1753999595.3821893
-0.015481540001928806,-0.04014085978269577,0.5905000567436218,129,156,149,1753999595.3821893
-0.012890772894024849,-0.04012386128306389,0.5902500152587891,129,156,151,1753999595.3821893
-0.010302196256816387,-0.040106870234012604,0.5900000333786011,127,154,149,1753999595.3821893
-0.007715809158980846,-0.04008987545967102,0.5897500514984131,129,156,151,1753999595.3821893
-0.005125081166625023,-0.04002189636230469,0.5887500047683716,131,156,151,1753999595.3821893
-0.002538783475756645,-0.03988594189286232,0.5867500305175781,130,153,147,1753999595.3821893
3.0027193133719265e-05,-0.03978397324681282,0.5852500200271606,128,151,145,1753999595.3821893
0.0025901333428919315,-0.03974998742341995,0.5847500562667847,129,154,147,1753999595.3821893
0.005154667887836695,-0.03978397324681282,0.5852500200271606,130,155,150,1753999595.3821893
0.007726877927780151,-0.03983495756983757,0.5860000252723694,127,151,151,1753999595.3821893
0.01031882781535387,-0.03993692621588707,0.5875000357627869,124,150,148,1753999595.3821893
0.012918426655232906,-0.04002189636230469,0.5887500047683716,122,146,144,1753999595.3821893
0.015528972260653973,-0.040106870234012604,0.5900000333786011,126,150,148,1753999595.3821893
0.01811976358294487,-0.04012386128306389,0.5902500152587891,123,148,143,1753999595.3821893
0.02071274444460869,-0.04014085978269577,0.5905000567436218,119,149,143,1753999595.3821893
0.023298049345612526,-0.04014085978269577,0.5905000567436218,125,148,144,1753999595.3821893
0.02589431405067444,-0.040157854557037354,0.5907500386238098,128,151,147,1753999595.3821893
0.028480714187026024,-0.040157854557037354,0.5907500386238098,129,152,148,1753999595.3821893
0.031053969636559486,-0.04014085978269577,0.5905000567436218,129,152,148,1753999595.3821893
0.033639274537563324,-0.04014085978269577,0.5905000567436218,130,153,149,1753999595.3821893
0.036209240555763245,-0.04012386128306389,0.5902500152587891,128,152,150,1753999595.3821893
0.03877702355384827,-0.040106870234012604,0.5900000333786011,130,154,156,1753999595.3821893
0.041360143572092056,-0.040106870234012604,0.5900000333786011,129,153,151,1753999595.3821893
0.043924640864133835,-0.04008987545967102,0.5897500514984131,127,151,149,1753999595.3821893
0.04648694396018982,-0.04007288068532944,0.5895000100135803,129,154,149,1753999595.3821893
0.04904706031084061,-0.040055885910987854,0.5892500281333923,131,153,152,1753999595.3821893
0.051604997366666794,-0.04003889113664627,0.5890000462532043,131,155,153,1753999595.3821893
0.05416073277592659,-0.04002189636230469,0.5887500047683716,128,155,150,1753999595.3821893
0.05671428516507149,-0.040004901587963104,0.5885000228881836,129,154,149,1753999595.3821893
0.05929083377122879,-0.040004901587963104,0.5885000228881836,130,153,149,1753999595.3821893
0.06178853660821915,-0.039953917264938354,0.5877500176429749,123,148,143,1753999595.3821893
0.0643891766667366,-0.03997091203927994,0.5879999995231628,127,151,149,1753999595.3821893
0.06690660119056702,-0.03993692621588707,0.5875000357627869,127,147,142,1753999595.3821893
0.06944920867681503,-0.039919931441545486,0.5872500538825989,126,151,146,1753999595.3821893
0.07198961824178696,-0.0399029366672039,0.5870000123977661,124,148,146,1753999595.3821893
0.07455960661172867,-0.0399029366672039,0.5870000123977661,127,151,151,1753999595.3821893
0.07709673792123795,-0.03988594189286232,0.5867500305175781,125,148,144,1753999595.3821893
0.0796995684504509,-0.0399029366672039,0.5870000123977661,129,152,148,1753999595.3821893
0.08226955682039261,-0.0399029366672039,0.5870000123977661,129,149,146,1753999595.3821893
0.0848756656050682,-0.039919931441545486,0.5872500538825989,129,152,148,1753999595.3821893
0.08740951865911484,-0.0399029366672039,0.5870000123977661,126,150,148,1753999595.3821893
0.08986452966928482,-0.03985195234417915,0.5862500071525574,126,150,150,1753999595.3821893
0.09219473600387573,-0.03974998742341995,0.5847500562667847,127,147,144,1753999595.3821893
0.09467384964227676,-0.039715997874736786,0.5842500329017639,125,148,144,1753999595.3821893
0.09723178297281265,-0.039715997874736786,0.5842500329017639,123,147,145,1753999595.3821893
0.09987513720989227,-0.03974998742341995,0.5847500562667847,125,147,150,1753999595.3821893
0.10243526101112366,-0.03974998742341995,0.5847500562667847,124,146,145,1753999595.3821893
0.10499539971351624,-0.03974998742341995,0.5847500562667847,127,147,144,1753999595.3821893
0.10760150849819183,-0.039766982197761536,0.5850000381469727,127,147,144,1753999595.3821893
0.1101156547665596,-0.03974998742341995,0.5847500562667847,125,145,142,1753999595.3821893
0.11267579346895218,-0.03974998742341995,0.5847500562667847,126,145,145,1753999595.3821893
0.1151866465806961,-0.03973299264907837,0.5845000147819519,128,150,151,1753999595.3821893
0.11774568259716034,-0.03973299264907837,0.5845000147819519,125,145,142,1753999595.3821893
0.12020181864500046,-0.0396990031003952,0.5840000510215759,126,145,145,1753999595.3821893
0.1228637546300888,-0.03973299264907837,0.5845000147819519,127,145,141,1753999595.3821893
0.12547644972801208,-0.03974998742341995,0.5847500562667847,126,146,143,1753999595.3821893
0.12809132039546967,-0.039766982197761536,0.5850000381469727,129,144,143,1753999595.3821893
0.1307642012834549,-0.039800968021154404,0.5855000019073486,126,144,142,1753999595.3821893
0.13327069580554962,-0.03978397324681282,0.5852500200271606,123,140,141,1753999595.3821893
0.13589103519916534,-0.039800968021154404,0.5855000019073486,125,142,143,1753999595.3821893
0.13833622634410858,-0.039766982197761536,0.5850000381469727,126,141,140,1753999595.3821893
0.14077700674533844,-0.03973299264907837,0.5845000147819519,123,143,140,1753999595.3821893
0.1432134509086609,-0.0396990031003952,0.5840000510215759,119,138,138,1753999595.3821893
0.14577029645442963,-0.0396990031003952,0.5840000510215759,127,145,143,1753999595.3821893
0.14826363325119019,-0.03968200832605362,0.5837500095367432,120,138,134,1753999595.3821893
0.15075480937957764,-0.039665013551712036,0.5835000276565552,123,138,137,1753999595.3821893
0.1532437801361084,-0.03964802250266075,0.5832500457763672,121,139,137,1753999595.3821893
0.15566378831863403,-0.039614029228687286,0.5827500224113464,124,141,142,1753999595.3821893
0.15814727544784546,-0.039597038179636,0.5825000405311584,120,137,138,1753999595.3821893
0.16055962443351746,-0.03956304490566254,0.5820000171661377,115,130,127,1753999595.3821893
0.16282746195793152,-0.0394950695335865,0.581000030040741,109,129,122,1753999595.3821893
0.1650865525007248,-0.03942709416151047,0.5800000429153442,102,119,120,1753999595.3821893
0.16704785823822021,-0.0392911359667778,0.578000009059906,77,97,92,1753999595.3821893
0.16818484663963318,-0.03896824270486832,0.5732500553131104,32,42,45,1753999595.3821893
0.1706201732158661,-0.03895124793052673,0.5730000138282776,38,46,45,1753999595.3821893
0.17297780513763428,-0.038917262107133865,0.5725000500679016,42,48,48,1753999595.3821893
0.17080983519554138,-0.03788059949874878,0.5572500228881836,96,53,55,1753999595.3821893
0.17021827399730682,-0.03721781447529793,0.5475000143051147,96,51,56,1753999595.3821893
0.16969898343086243,-0.03658902272582054,0.5382500290870667,110,48,60,1753999595.3821893
0.17181578278541565,-0.03653803840279579,0.5375000238418579,112,49,55,1753999595.3821893
0.17781445384025574,-0.037302788347005844,0.5487500429153442,100,70,80,1753999595.3821893
0.18867363035678864,-0.039053212851285934,0.5745000243186951,67,86,86,1753999595.3821893
0.1922704577445984,-0.03927414119243622,0.577750027179718,59,81,80,1753999595.3821893
0.19479992985725403,-0.03927414119243622,0.577750027179718,46,65,65,1753999595.3821893
0.196475550532341,-0.039104197174310684,0.5752500295639038,44,66,67,1753999595.3821893
0.1984751969575882,-0.03900223225355148,0.5737500190734863,105,136,136,1753999595.3821893
0.2006368637084961,-0.03893425315618515,0.5727500319480896,101,126,133,1753999595.3821893
0.2028784602880478,-0.0388832688331604,0.5720000267028809,103,127,137,1753999595.3821893
0.20520320534706116,-0.038849279284477234,0.5715000033378601,115,141,141,1753999595.3821893
0.21124887466430664,-0.039512064307928085,0.581250011920929,94,116,117,1753999595.3821893
0.24101214110851288,-0.04454241693019867,0.6552500128746033,80,95,94,1753999595.3821893
0.25420936942100525,-0.046428799629211426,0.6830000281333923,106,102,93,1753999595.3821893
0.2576703727245331,-0.04651377350091934,0.6842500567436218,111,103,91,1753999595.3821893
0.2599042057991028,-0.046377815306186676,0.6822500228881836,111,104,85,1753999595.3821893
0.26298752427101135,-0.04639481008052826,0.6825000047683716,121,115,100,1753999595.3821893
0.266073077917099,-0.04641180485486984,0.6827500462532043,121,113,99,1753999595.3821893
0.26916077733039856,-0.046428799629211426,0.6830000281333923,122,114,100,1753999595.3821893
0.2722506821155548,-0.04644579067826271,0.6832500100135803,119,112,91,1753999595.3821893
0.2751413583755493,-0.046428799629211426,0.6830000281333923,122,115,94,1753999595.3821893
0.2781316339969635,-0.046428799629211426,0.6830000281333923,119,117,96,1753999595.3821893
0.28091612458229065,-0.04639481008052826,0.6825000047683716,126,124,105,1753999595.3821893
0.283072292804718,-0.04625885561108589,0.6805000305175781,126,124,105,1753999595.3821893
0.2857363522052765,-0.04620787128806114,0.6797500252723694,122,117,97,1753999595.3821893
0.2888185679912567,-0.046224866062402725,0.6800000071525574,121,118,104,1753999595.3821893
0.29233214259147644,-0.04630983993411064,0.6812500357627869,108,105,89,1753999595.3821893
0.295748233795166,-0.046377815306186676,0.6822500228881836,118,110,98,1753999595.3821893
0.29884469509124756,-0.04639481008052826,0.6825000047683716,116,114,93,1753999595.3821893
0.30183279514312744,-0.04639481008052826,0.6825000047683716,120,118,97,1753999595.3821893
0.3045975863933563,-0.04636082425713539,0.6820000410079956,119,118,101,1753999595.3821893
0.30679425597190857,-0.04624186083674431,0.6802500486373901,123,116,95,1753999595.3821893
0.30943095684051514,-0.04619087651371956,0.6795000433921814,123,116,97,1753999595.3821893
0.3122909963130951,-0.046173885464668274,0.6792500615119934,122,120,101,1753999595.3821893
0.3148007094860077,-0.04610590264201164,0.6782500147819519,123,118,98,1753999595.3821893
0.3176530599594116,-0.04608891159296036,0.6780000329017639,124,117,98,1753999595.3821893
0.3208579123020172,-0.046122901141643524,0.6785000562667847,123,115,89,1753999595.3821893
0.32526031136512756,-0.046326830983161926,0.6815000176429749,126,120,96,1753999595.3821893
0.3286052644252777,-0.046377815306186676,0.6822500228881836,122,115,98,1753999595.3821893
0.3317137658596039,-0.04639481008052826,0.6825000047683716,125,118,99,1753999595.3821893
0.3344566822052002,-0.04636082425713539,0.6820000410079956,126,119,100,1753999595.3821893
0.33694779872894287,-0.04629284515976906,0.6810000538825989,128,123,103,1753999595.3821893
0.33955496549606323,-0.04624186083674431,0.6802500486373901,127,122,100,1753999595.3821893
0.3421555459499359,-0.04619087651371956,0.6795000433921814,123,118,96,1753999595.3821893
0.3447495698928833,-0.04613989591598511,0.6787500381469727,122,115,94,1753999595.3821893
0.34720897674560547,-0.046071916818618774,0.6777500510215759,122,116,90,1753999595.3821893
0.3499179184436798,-0.04603792726993561,0.6772500276565552,123,118,98,1753999595.3821893
0.35249224305152893,-0.04598694294691086,0.6765000224113464,135,123,105,1753999595.3821893
-0.2846772372722626,-0.044477544724941254,0.6992500424385071,139,127,107,1753999595.3821893
-0.2810116708278656,-0.044382136315107346,0.6977500319480896,142,134,110,1753999595.3821893
-0.27795684337615967,-0.044382136315107346,0.6977500319480896,141,133,107,1753999595.3821893
-0.27490195631980896,-0.044382136315107346,0.6977500319480896,144,136,110,1753999595.3821893
-0.27243152260780334,-0.044477544724941254,0.6992500424385071,140,131,110,1753999595.3821893
-0.26305899024009705,-0.044445741921663284,0.6987500190734863,144,138,114,1753999595.3821893
-0.25990670919418335,-0.04442983865737915,0.6985000371932983,145,139,113,1753999595.3821893
-0.25620508193969727,-0.04431852698326111,0.6967500448226929,139,134,112,1753999595.3821893
-0.25379040837287903,-0.04442983865737915,0.6985000371932983,130,119,96,1753999595.3821893
-0.250552773475647,-0.04439803585410118,0.6980000138282776,127,116,93,1753999595.3821893
-0.2480286806821823,-0.04449344798922539,0.6995000243186951,130,118,98,1753999595.3821893
-0.21740342676639557,-0.04449344798922539,0.6995000243186951,132,123,106,1753999595.3821893
-0.21395790576934814,-0.044413939118385315,0.6982500553131104,130,116,97,1753999595.3821893
-0.2107498198747635,-0.044382136315107346,0.6977500319480896,129,117,101,1753999595.3821893
-0.2076205462217331,-0.04436623305082321,0.6975000500679016,130,121,104,1753999595.3821893
-0.20464009046554565,-0.044382136315107346,0.6977500319480896,125,118,99,1753999595.3821893
-0.18323959410190582,-0.04034305736422539,0.6342500448226929,102,115,114,1753999595.3821893
-0.170148566365242,-0.038037288933992386,0.5980000495910645,120,144,144,1753999595.3821893
-0.1633281409740448,-0.03708317130804062,0.5830000042915344,117,142,147,1753999595.3821893
-0.160844624042511,-0.03709907829761505,0.5832500457763672,113,139,141,1753999595.3821893
-0.1582231968641281,-0.03708317130804062,0.5830000042915344,117,146,147,1753999595.3821893
-0.15580424666404724,-0.03711497783660889,0.5835000276565552,44,62,69,1753999595.3821893
-0.1553507000207901,-0.03762383759021759,0.5915000438690186,62,70,71,1753999595.3821893
-0.15489166975021362,-0.03814860060811043,0.5997500419616699,83,94,90,1753999595.3821893
-0.15105991065502167,-0.03784646466374397,0.5950000286102295,98,117,117,1753999595.3821893
-0.1478935182094574,-0.03770334646105766,0.5927500128746033,122,147,142,1753999595.3821893
-0.1406409740447998,-0.03649480268359184,0.5737500190734863,122,98,102,1753999595.3821893
-0.13391591608524323,-0.03538167476654053,0.5562500357627869,125,49,64,1753999595.3821893
-0.1308896541595459,-0.035222653299570084,0.5537500381469727,102,38,47,1753999595.3821893
-0.12910321354866028,-0.03539757430553436,0.5565000176429749,85,37,41,1753999595.3821893
-0.12774792313575745,-0.03569971024990082,0.5612500309944153,76,33,37,1753999595.3821893
-0.1283043473958969,-0.03655841201543808,0.5747500061988831,28,31,32,1753999595.3821893
-0.1282501369714737,-0.03727399557828903,0.5860000252723694,25,28,27,1753999595.3821893
-0.12654246389865875,-0.037528425455093384,0.5900000333786011,18,22,17,1753999595.3821893
-0.12416943907737732,-0.03759203478693962,0.5910000205039978,70,79,72,1753999595.3821893
-0.12158193439245224,-0.03759203478693962,0.5910000205039978,70,81,77,1753999595.3821893
-0.11909512430429459,-0.03762383759021759,0.5915000438690186,77,88,88,1753999595.3821893
-0.11650543659925461,-0.03762383759021759,0.5915000438690186,86,97,93,1753999595.3821893
-0.11391575634479523,-0.03762383759021759,0.5915000438690186,103,114,110,1753999595.3821893
-0.1112319603562355,-0.03759203478693962,0.5910000205039978,121,137,128,1753999595.3821893
-0.10864446312189102,-0.03759203478693962,0.5910000205039978,120,138,136,1753999595.3821893
-0.10610183328390121,-0.037607934325933456,0.5912500023841858,125,145,142,1753999595.3821893
-0.10355702042579651,-0.03762383759021759,0.5915000438690186,126,146,139,1753999595.3821893
-0.10101000964641571,-0.037639740854501724,0.5917500257492065,125,145,140,1753999595.3821893
-0.09850239008665085,-0.037671543657779694,0.5922500491142273,131,151,148,1753999595.3821893
-0.09594990313053131,-0.03768744692206383,0.5925000309944153,130,150,145,1753999595.3821893
-0.09335584193468094,-0.03768744692206383,0.5925000309944153,131,154,150,1753999595.3821893
-0.09076178073883057,-0.03768744692206383,0.5925000309944153,132,152,147,1753999595.3821893
-0.0881677120923996,-0.03768744692206383,0.5925000309944153,128,153,148,1753999595.3821893
-0.08557365834712982,-0.03768744692206383,0.5925000309944153,131,156,151,1753999595.3821893
-0.08294457942247391,-0.037671543657779694,0.5922500491142273,131,154,146,1753999595.3821893
-0.08031769096851349,-0.03765564039349556,0.5920000076293945,132,154,153,1753999595.3821893
-0.07772582024335861,-0.03765564039349556,0.5920000076293945,131,155,153,1753999595.3821893
-0.07510221749544144,-0.037639740854501724,0.5917500257492065,134,157,151,1753999595.3821893
-0.07248081266880035,-0.03762383759021759,0.5915000438690186,131,153,152,1753999595.3821893
-0.06989112496376038,-0.03762383759021759,0.5915000438690186,125,151,149,1753999595.3821893
-0.06727299094200134,-0.037607934325933456,0.5912500023841858,131,156,151,1753999595.3821893
-0.0646570548415184,-0.03759203478693962,0.5910000205039978,130,154,152,1753999595.3821893
-0.06206955760717392,-0.03759203478693962,0.5910000205039978,128,152,150,1753999595.3821893
-0.059482064098119736,-0.03759203478693962,0.5910000205039978,131,155,153,1753999595.3821893
-0.05689456686377525,-0.03759203478693962,0.5910000205039978,129,156,149,1753999595.3821893
-0.054330043494701385,-0.037607934325933456,0.5912500023841858,131,158,153,1753999595.3821893
-0.05176333338022232,-0.03762383759021759,0.5915000438690186,133,158,153,1753999595.3821893
-0.04917365312576294,-0.03762383759021759,0.5915000438690186,132,158,158,1753999595.3821893
-0.04660365730524063,-0.037639740854501724,0.5917500257492065,130,154,152,1753999595.3821893
-0.044012874364852905,-0.037639740854501724,0.5917500257492065,131,158,153,1753999595.3821893
-0.04142209514975548,-0.037639740854501724,0.5917500257492065,131,154,150,1753999595.3821893
-0.03881491348147392,-0.03762383759021759,0.5915000438690186,133,158,153,1753999595.3821893
-0.03622522950172424,-0.03762383759021759,0.5915000438690186,128,153,148,1753999595.3821893
-0.033621326088905334,-0.037607934325933456,0.5912500023841858,129,155,153,1753999595.3821893
-0.031006498262286186,-0.03757613152265549,0.5907500386238098,135,162,157,1753999595.3821893
-0.028408069163560867,-0.03756023198366165,0.5905000567436218,133,160,155,1753999595.3821893
-0.025811830535531044,-0.03754432871937752,0.5902500152587891,133,160,153,1753999595.3821893
-0.02320794202387333,-0.03751252591609955,0.5897500514984131,135,160,155,1753999595.3821893
-0.020617175847291946,-0.037496622651815414,0.5895000100135803,133,160,155,1753999595.3821893
-0.018020952120423317,-0.037464819848537445,0.5890000462532043,129,159,153,1753999595.3821893
-0.0154356574639678,-0.03744891658425331,0.5887500047683716,129,154,147,1753999595.3821893
-0.012847093865275383,-0.03741711378097534,0.5882500410079956,131,158,151,1753999595.3821893
-0.010258542373776436,-0.03736940771341324,0.5875000357627869,129,156,151,1753999595.3821893
-0.007670017424970865,-0.03728989511728287,0.5862500071525574,134,159,154,1753999595.3821893
-0.00508808484300971,-0.037178583443164825,0.5845000147819519,129,155,153,1753999595.3821893
-0.0025258029345422983,-0.03713087737560272,0.5837500095367432,128,154,152,1753999595.3821893
