x,y,z,r,g,b,timestamp
-0.14338609574758288,0.09541063259652915,0.08464761469874643,122,50,64,1753999595.3821893
-0.14077612403129,0.09541063259652915,0.0845564724780618,83,21,33,1753999595.3821893
-0.13822404540359806,0.09560987085104988,0.08431214381764329,59,28,26,1753999595.3821893
-0.1403284427630948,0.11214761142441598,0.07150221790794331,18,9,12,1753999595.3821893
-0.13835093076705407,0.11473786363364868,0.06941527425915595,14,17,16,1753999595.3821893
-0.13585335287051575,0.11553490482096157,0.06870714384790594,14,17,18,1753999595.3821893
-0.13484589177695597,0.12191086945241847,0.06370488578960282,34,42,41,1753999595.3821893
-0.1321952961779688,0.12230938736632524,0.06330186582767461,26,32,32,1753999595.3821893
-0.12948897279222446,0.12250862562084597,0.06305215082161492,19,27,26,1753999595.3821893
-0.1267302291586792,0.12250862562084597,0.06295581337110101,1,4,5,1753999595.3821893
-0.12392232664368696,0.12230938736632524,0.06301296736555573,3,4,0,1753999595.3821893
-0.1211646701322597,0.12230938736632524,0.06291666787818273,0,1,0,1753999595.3821893
-0.11840701362083246,0.12230938736632524,0.06282036839080979,0,0,0,1753999595.3821893
-0.1156493496633632,0.12230938736632524,0.06272406864341529,0,1,0,1753999595.3821893
-0.11289170059797785,0.12230938736632524,0.06262776941606385,0,0,0,1753999595.3821893
-0.1101777226811557,0.12250862562084597,0.06237778710788877,1,1,3,1753999595.3821893
-0.10746155580863961,0.12270785851586752,0.06212772318093357,4,4,8,1753999595.3821893
-0.10474322327302778,0.12290714353475285,0.06187755108275439,2,2,4,1753999595.3821893
-0.10202268557391382,0.1231063764297744,0.061627334523171096,14,20,22,1753999595.3821893
-0.0992606582358885,0.1231063764297744,0.061530882403170006,15,21,23,1753999595.3821893
-0.09649862345182138,0.1231063764297744,0.06143443002314741,12,18,20,1753999595.3821893
-0.09369946240939905,0.12290714353475285,0.06149189445531361,15,18,19,1753999595.3821893
-0.09086647257008681,0.12250862562084597,0.06170342339416268,15,18,19,1753999595.3821893
-0.08800290916992148,0.12191086945241847,0.06206909279167666,15,18,19,1753999595.3821893
-0.08514591317871596,0.12131311328399086,0.06243499152816501,13,19,19,1753999595.3821893
-0.08232823371728396,0.12091464213444858,0.06264701739382572,12,18,16,1753999595.3821893
-0.07954657700365461,0.12071536247506243,0.06270513081398799,11,17,17,1753999595.3821893
-0.07679766959146521,0.12071536247506243,0.06260913685189273,12,18,16,1753999595.3821893
-0.07410769932288692,0.12111388038896931,0.06220474189620395,12,18,16,1753999595.3821893
-0.0713849762104739,0.12131311328399086,0.06195444902030656,16,19,20,1753999595.3821893
-0.0686600725428813,0.12151239830287608,0.061704047453142175,14,17,20,1753999595.3821893
-0.06590679058107296,0.12151239830287608,0.06160790072840805,12,18,18,1753999595.3821893
-0.06312841402952876,0.12131311328399086,0.061666123515591476,12,18,18,1753999595.3821893
-0.060328232766572315,0.12091464213444858,0.06187876043180768,11,15,10,1753999595.3821893
-0.057555328875201796,0.12071536247506243,0.061937179507258466,13,16,15,1753999595.3821893
-0.05476280958936518,0.12031689132552015,0.062150083985611504,9,15,15,1753999595.3821893
-0.05207823427156594,0.12091464213444858,0.061590664136056295,10,13,14,1753999595.3821893
-0.049426339857271906,0.12191086945241847,0.06072196930692719,9,15,15,1753999595.3821893
-0.0466708724821645,0.12191086945241847,0.06062574626587902,10,13,16,1753999595.3821893
-0.043897970087144654,0.12171163119789774,0.06068412249145544,10,13,16,1753999595.3821893
-0.041127256647818536,0.12151239830287608,0.060742580335811924,10,13,16,1753999595.3821893
-0.038373972824499676,0.12151239830287608,0.060646433546072465,13,13,15,1753999595.3821893
-0.03560653823153421,0.12131311328399086,0.060705038434869185,11,14,17,1753999595.3821893
-0.03284129390998692,0.12111388038896931,0.060763687265027067,7,15,16,1753999595.3821893
-0.030066269645391098,0.12071536247506243,0.06097724040634922,9,12,15,1753999595.3821893
-0.027306493691493607,0.1205161242205417,0.06103607501735031,7,10,9,1753999595.3821893
-0.02454890576253467,0.12031689132552015,0.06109499121462897,4,7,6,1753999595.3821893
-0.02179350621976663,0.12011765307099942,0.06115397865327421,2,5,8,1753999595.3821893
-0.01904788111592418,0.12011765307099942,0.06105809931191214,3,3,5,1753999595.3821893
-0.016302256710148226,0.12011765307099942,0.060962219994927125,0,3,4,1753999595.3821893
-0.013556632293465001,0.12011765307099942,0.06086634067756125,0,0,0,1753999595.3821893
-0.010806699865592205,0.11991836805211414,0.060925556755430765,0,1,0,1753999595.3821893
-0.008058956767475254,0.1197191351570926,0.060984816741777914,0,0,0,1753999595.3821893
-0.005313400426727336,0.11951989690257186,0.06104414791261209,0,0,0,1753999595.3821893
-0.0025690073170161845,0.11912137898866504,0.06125877071743324,0,0,0,1753999595.3821893
0.00017108055195654538,0.11892214609364338,0.06131829803027261,0,1,0,1753999595.3821893
0.0029089794889525173,0.1187228610747581,0.06137793432690325,0,0,0,1753999595.3821893
0.005644690946795901,0.11852362817973655,0.061437614467386936,0,0,0,1753999595.3821893
0.008381563693757194,0.11852362817973655,0.061342040765062056,0,0,0,1753999595.3821893
0.011118436440718383,0.11852362817973655,0.061246467062737175,7,14,18,1753999595.3821893
0.013860848749437453,0.1187228610747581,0.060995486624954076,7,15,14,1753999595.3821893
0.016605447197867582,0.11892214609364338,0.060744397300887876,8,14,16,1753999595.3821893
0.019359961073398785,0.11932061724318571,0.06033778615614371,7,13,15,1753999595.3821893
0.02211002845898173,0.11951989690257186,0.060086500673820875,6,12,14,1753999595.3821893
0.02485236846221134,0.11951989690257186,0.0599907360507001,5,11,11,1753999595.3821893
0.02759471218846199,0.11951989690257186,0.059894971297568544,7,10,13,1753999595.3821893
0.030337059637733498,0.11951989690257186,0.059799206414426265,7,10,11,1753999595.3821893
0.033066203140831106,0.11932061724318571,0.05985915363630878,4,10,10,1753999595.3821893
0.03579316345730001,0.11912137898866504,0.059919134194620305,8,10,16,1753999595.3821893
0.03853331804723073,0.11912137898866504,0.059823445887813576,3,5,13,1753999595.3821893
0.04125700228588779,0.11892214609364338,0.05988354602804602,0,6,8,1753999595.3821893
0.04399606230765849,0.11892214609364338,0.0597878959444017,0,1,2,1753999595.3821893
0.046716452807871185,0.1187228610747581,0.05984814364911739,0,3,2,1753999595.3821893
0.04945442198450293,0.1187228610747581,0.05975253165862471,0,1,2,1753999595.3821893
0.052192383715092654,0.1187228610747581,0.059656919928153584,0,0,0,1753999595.3821893
0.05493036033776629,0.1187228610747581,0.0595613076776394,0,1,0,1753999595.3821893
0.05766832206835611,0.1187228610747581,0.05946569594716822,0,1,0,1753999595.3821893
0.060382158916594375,0.11852362817973655,0.059526139965851654,4,7,8,1753999595.3821893
0.06311903352506619,0.11852362817973655,0.059430566198521384,52,62,67,1753999595.3821893
0.06582958648819848,0.11832438992521588,0.059491119714236707,90,105,102,1753999595.3821893
0.06851052815182014,0.11792587201130905,0.059707958292380736,106,126,121,1753999595.3821893
0.0711585956532264,0.11732811584288139,0.06008115297250166,109,127,123,1753999595.3821893
0.07380010337234084,0.11673036503395301,0.06045458190403086,125,143,139,1753999595.3821893
0.07643503605582756,0.1161326088655254,0.06082823526210068,110,129,129,1753999595.3821893
0.07906341508733984,0.11553490482096157,0.0612020849341382,115,135,132,1753999595.3821893
0.08171810927262196,0.11513638154755562,0.06141983491566011,101,125,125,1753999595.3821893
0.08443638366841619,0.11513638154755562,0.061324910682069245,103,121,115,1753999595.3821893
0.08722481312972417,0.11553490482096157,0.060917082634369735,64,79,76,1753999595.3821893
0.09005376479275586,0.1161326088655254,0.06035265877510776,25,36,34,1753999595.3821893
0.09285203774083561,0.11653112677943234,0.059944481806512795,0,1,0,1753999595.3821893
0.09561632111676478,0.11673036503395301,0.05969274279299608,0,1,2,1753999595.3821893
0.0983828070247472,0.11692964469333916,0.05944088396323716,0,2,5,1753999595.3821893
0.10111093253398108,0.11692964469333916,0.05934561572118463,2,4,10,1753999595.3821893
0.10379740649394474,0.11673036503395301,0.05940705299634724,0,0,0,1753999595.3821893
0.10648171215936358,0.11653112677943234,0.0594685230878958,0,1,0,1753999595.3821893
0.10916382142304663,0.11633189388441073,0.05953007505824598,0,0,0,1753999595.3821893
0.11188866322780067,0.11633189388441073,0.05943492148568069,0,0,0,1753999595.3821893
0.11461351247859661,0.11633189388441073,0.0593397676530939,0,0,0,1753999595.3821893
0.11738544275893564,0.11653112677943234,0.05908775642502806,0,0,0,1753999595.3821893
0.1201113940239335,0.11653112677943234,0.058992564109257295,0,0,0,1753999595.3821893
0.1228373155047636,0.11653112677943234,0.05889737283357266,0,0,0,1753999595.3821893
0.12556325187767756,0.11653112677943234,0.05880218103784496,3,6,7,1753999595.3821893
0.12828918825059157,0.11653112677943234,0.05870698924211726,34,41,35,1753999595.3821893
0.13096254841503688,0.11633189388441073,0.058768846737745184,60,68,65,1753999595.3821893
0.13368739766583285,0.11633189388441073,0.05867369290515839,62,77,74,1753999595.3821893
0.1363574529227708,0.1161326088655254,0.058735698355301735,88,103,102,1753999595.3821893
0.13902536258454204,0.11593337597050385,0.05879774618667716,105,116,114,1753999595.3821893
0.1416910680372833,0.11573413771598318,0.05885986581196512,109,133,131,1753999595.3821893
0.14435458453433084,0.11553490482096157,0.0589220670560332,104,126,125,1753999595.3821893
0.1469567692321021,0.11513638154755562,0.05914165070926458,106,126,123,1753999595.3821893
0.14955459072994354,0.11473786363364868,0.05936139190755785,97,114,115,1753999595.3821893
0.1520867012013966,0.11414011282472031,0.05973864107515575,90,105,100,1753999595.3821893
0.15430014547777754,0.11254612933832286,0.06090310176830466,19,28,21,1753999595.3821893
0.1554798953690406,0.10776414283376429,0.06458721968670678,27,38,38,1753999595.3821893
0.15770545424280719,0.10636939760188757,0.06559604921785694,37,47,50,1753999595.3821893
0.16017850270987352,0.1057716467929592,0.06597536087609568,48,47,47,1753999595.3821893
0.15770218190784355,0.09042936643258448,0.07801394706355086,89,29,41,1753999595.3821893
0.15743347934850735,0.08206084827695959,0.08454265464447996,107,47,55,1753999595.3821893
0.15955630375359942,0.0808653880639682,0.0853998259080283,119,55,66,1753999595.3821893
0.16222657311102281,0.08126385921351048,0.08499615664668192,90,40,46,1753999595.3821893
0.1753632599081915,0.1109521512114246,0.06140932265377208,77,96,96,1753999595.3821893
0.1805878073377788,0.11792587201130905,0.05579413346066564,69,91,92,1753999595.3821893
0.18332138334968684,0.11792587201130905,0.05569867488286562,52,69,72,1753999595.3821893
0.18575716448981403,0.11712888294785984,0.056234496055773964,53,75,78,1753999595.3821893
0.18735319587674262,0.11414011282472031,0.05850710794381603,108,131,136,1753999595.3821893
0.18983610140694002,0.11354240342065725,0.05888603248369717,101,126,133,1753999595.3821893
0.19262337071422847,0.11374164167517803,0.05863349078376995,119,147,153,1753999595.3821893
0.1956492762031594,0.11453863073862713,0.05790694331105206,117,136,136,1753999595.3821893
0.2073953627728745,0.1370538647939078,0.039956692503662905,105,124,126,1753999595.3821893
-0.18745625391588083,0.14354835254938658,0.04506732974648625,119,144,151,1753999595.3821893
-0.17694430864384897,0.1219157684326132,0.06170220459800685,128,151,158,1753999595.3821893
-0.17252496918058924,0.11715264736509445,0.06529142280126238,126,149,156,1753999595.3821893
-0.1697848108676377,0.11715264736509445,0.06519573436444492,119,147,151,1753999595.3821893
-0.16717803620704477,0.1175495895862485,0.0647927221071013,50,64,70,1753999595.3821893
-0.16548511922213266,0.12072497781451719,0.06223793784567033,74,86,88,1753999595.3821893
-0.16524065732209206,0.12846508346652497,0.056146121478142574,80,100,97,1753999595.3821893
-0.16148711153367995,0.12548815100589983,0.05835474685819575,123,142,144,1753999595.3821893
-0.15645788405505603,0.11834343798319047,0.06379445086516788,117,141,143,1753999595.3821893
-0.14575320924678145,0.09254307866383221,0.08369822704490987,128,52,72,1753999595.3821893
-0.14146530358475146,0.08698610919937133,0.08791595029735877,124,52,66,1753999595.3821893
-0.14072126288396344,0.09313847665262981,0.08305456171524983,79,22,33,1753999595.3821893
-0.1381134654119068,0.09313847665262981,0.08296349542084697,61,28,29,1753999595.3821893
-0.13993915844930718,0.1086186933161446,0.0708606960655978,27,26,28,1753999595.3821893
-0.1388069115040225,0.11417566278060548,0.06645369691333874,22,25,26,1753999595.3821893
-0.13739482481651097,0.11893883597198807,0.06266080827706189,27,33,31,1753999595.3821893
-0.13496617810082742,0.12012962659008408,0.06164010110490509,58,69,67,1753999595.3821893
-0.13226207040344262,0.12032807699822856,0.06138970219423584,61,72,70,1753999595.3821893
-0.129555773569738,0.12052652740637293,0.06113922683724182,67,76,69,1753999595.3821893
-0.12679702993619274,0.12052652740637293,0.06104288938672797,76,84,85,1753999595.3821893
-0.12403827885660547,0.12052652740637293,0.06094655167619256,89,102,101,1753999595.3821893
-0.1212795352230601,0.12052652740637293,0.06085021422567871,110,130,125,1753999595.3821893
-0.11852077669743091,0.12052652740637293,0.0607538762551218,111,129,127,1753999595.3821893
-0.11580791990080841,0.12072497781451719,0.06050317181917475,119,139,134,1753999595.3821893
-0.11304808169910312,0.12072497781451719,0.06040679614549849,119,139,134,1753999595.3821893
-0.11033195740580891,0.12092347498702616,0.06015593988268825,115,135,128,1753999595.3821893
-0.10761362776838658,0.12112192539517053,0.05990504433092925,110,130,125,1753999595.3821893
-0.10489312388672814,0.12132037580331478,0.05965407285288837,113,131,127,1753999595.3821893
-0.102129994534501,0.12132037580331478,0.05955758224970337,110,130,123,1753999595.3821893
-0.09940621571012899,0.12151887297582376,0.059306458684777796,115,135,128,1753999595.3821893
-0.09660374327608871,0.12132037580331478,0.05936460130335486,111,134,128,1753999595.3821893
-0.09380346874013469,0.12112192539517053,0.05942278295085929,116,134,130,1753999595.3821893
-0.09100538334050058,0.12092347498702616,0.05948104104468843,119,137,133,1753999595.3821893
-0.08817451482197117,0.12052652740637293,0.059694161439232674,120,143,139,1753999595.3821893
-0.08531416309683468,0.11993112941757528,0.06006222164660313,123,142,142,1753999595.3821893
-0.0824931470074694,0.11953422860128649,0.060275648372189905,113,135,134,1753999595.3821893
-0.07970818003732053,0.1193357367882768,0.06033440747379937,116,139,133,1753999595.3821893
-0.07695599636669308,0.1193357367882768,0.060238299102238435,123,141,137,1753999595.3821893
-0.0742038052500237,0.1193357367882768,0.06014219047065594,110,128,124,1753999595.3821893
-0.07148001916023589,0.11953422860128649,0.059891061473253515,116,134,132,1753999595.3821893
-0.06872674092144851,0.11953422860128649,0.05979491487853017,120,135,130,1753999595.3821893
-0.06597345895964017,0.11953422860128649,0.059698768153796045,117,137,132,1753999595.3821893
-0.06322017699783174,0.11953422860128649,0.059602621429061975,109,129,124,1753999595.3821893
-0.060466895036023406,0.11953422860128649,0.05950647470432785,120,143,137,1753999595.3821893
-0.0577365400409252,0.11973267900943091,0.059255159217825426,117,140,134,1753999595.3821893
-0.055003999632528104,0.11993112941757528,0.059003767415008845,119,139,134,1753999595.3821893
-0.052269275126556394,0.12012962659008408,0.058752261618459145,124,147,143,1753999595.3821893
-0.04953236016854029,0.12032807699822856,0.05850071705300375,121,146,141,1753999595.3821893
-0.04677470365711304,0.12032807699822856,0.05840441756563075,123,143,138,1753999595.3821893
-0.04399958557373345,0.12012962659008408,0.058463477695816723,123,145,146,1753999595.3821893
-0.041243023630466114,0.12012962659008408,0.05836721643160614,122,147,142,1753999595.3821893
-0.03847118421282106,0.11993112941757528,0.058426428778687645,122,145,141,1753999595.3821893
-0.035701538970241364,0.11973267900943091,0.05848568002468568,123,146,140,1753999595.3821893
-0.03292099248378718,0.1193357367882768,0.05870056288207526,119,139,134,1753999595.3821893
-0.030156814497475794,0.11913728638013243,0.058760005048869135,124,147,141,1753999595.3821893
-0.027383925514991338,0.11874033879947915,0.0589751501334268,103,116,115,1753999595.3821893
-0.024625217577214153,0.11854188839133478,0.059034783318524686,102,120,116,1753999595.3821893
-0.021877405663939826,0.11854188839133478,0.05893882761209451,98,116,112,1753999595.3821893
-0.019121978638376808,0.11834343798319047,0.058998575369171524,109,129,124,1753999595.3821893
-0.0163752605951961,0.11834343798319047,0.05890265786152682,105,125,118,1753999595.3821893
-0.013628542290240539,0.11834343798319047,0.058806740344740704,114,137,133,1753999595.3821893
-0.010881823810768384,0.11834343798319047,0.0587108228218603,116,136,131,1753999595.3821893
-0.008131866368361836,0.11814498757504616,0.05877076158098998,124,142,138,1753999595.3821893
-0.005381949821285646,0.11774803999439287,0.05898670888066926,117,140,136,1753999595.3821893
-0.0026374610312804034,0.1175495895862485,0.05904683860934884,120,140,135,1753999595.3821893
0.0001048399381293647,0.11735109241373953,0.05910708246177221,122,145,141,1753999595.3821893
0.002844952497631378,0.11715264736509445,0.059167370190551405,120,145,140,1753999595.3821893
0.005585108949072526,0.11715264736509445,0.059071681818739286,118,141,135,1753999595.3821893
0.008325263539003244,0.11715264736509445,0.058975993511932556,122,142,135,1753999595.3821893
0.011065418128933958,0.11715264736509445,0.05888030520512583,120,140,137,1753999595.3821893
0.013811083867072216,0.11735109241373953,0.05862844987693189,121,143,144,1753999595.3821893
0.016558939467942495,0.1175495895862485,0.05837648553244418,116,140,138,1753999595.3821893
0.0193089799363258,0.11774803999439287,0.058124482614066775,120,143,137,1753999595.3821893
0.0220612076795185,0.11794649040253719,0.057872403314369825,117,140,132,1753999595.3821893
0.024805740542089092,0.11794649040253719,0.0577765621149135,117,140,134,1753999595.3821893
0.027550269681638633,0.11794649040253719,0.0576807210454679,119,139,134,1753999595.3821893
0.03028272939094713,0.11774803999439287,0.05774127083890174,123,146,142,1753999595.3821893
0.03301299624091474,0.1175495895862485,0.05780189720867107,119,143,141,1753999595.3821893
0.03572681316133097,0.11715264736509445,0.058019110313854594,118,140,141,1753999595.3821893
0.03845161089351974,0.11695419695695003,0.05807992766942521,120,139,139,1753999595.3821893
0.04119067836133235,0.11695419695695003,0.05798427732575939,120,143,137,1753999595.3821893
0.04391218998174467,0.11675569978444111,0.05804524715824699,120,143,139,1753999595.3821893
0.04665015543535545,0.11675569978444111,0.05794963529776509,120,143,139,1753999595.3821893
0.049388124611987196,0.11675569978444111,0.05785402330727246,116,140,138,1753999595.3821893
0.05212608634257692,0.11675569978444111,0.05775841157680128,117,139,138,1753999595.3821893
0.05486406296525056,0.11675569978444111,0.057662799326287095,113,137,135,1753999595.3821893
0.05760202469584038,0.11675569978444111,0.05756718759581597,114,138,136,1753999595.3821893
0.060315887915492236,0.1165572493762968,0.05762838679297838,115,140,135,1753999595.3821893
0.06302756199882426,0.11635879896815243,0.05768966243646567,115,138,134,1753999595.3821893
0.06573704826156078,0.11616030179564352,0.05775105220369675,113,135,136,1753999595.3821893
0.06841695441079317,0.11576340097935484,0.05796940659697597,105,134,133,1753999595.3821893
0.07109248360311028,0.11536645339870155,0.05818795156032386,112,136,138,1753999595.3821893
0.07373407079771774,0.11477106076940313,0.05856365637220079,114,136,137,1753999595.3821893
0.07636908295669748,0.11417566278060548,0.05893958561061835,113,136,132,1753999595.3821893
0.07902930921717626,0.11377876196431674,0.05915862724075632,110,132,131,1753999595.3821893
0.08171800481519079,0.11358031155617243,0.05922070531063267,107,131,131,1753999595.3821893
0.08443847579334685,0.11358031155617243,0.059125704370695475,103,127,125,1753999595.3821893
0.08719398351799855,0.11377876196431674,0.05887351053152212,104,126,127,1753999595.3821893
0.08998781169362577,0.11417566278060548,0.05846400912362548,103,125,128,1753999595.3821893
0.09278603171825223,0.11457261036125871,0.05805431662561705,103,128,133,1753999595.3821893
0.09555028854214168,0.11477106076940313,0.05780181726116601,110,136,136,1753999595.3821893
0.0983167480787105,0.11496955794191199,0.057549203252928005,112,138,138,1753999595.3821893
0.1010448735879444,0.11496955794191199,0.05745393501087548,117,135,133,1753999595.3821893
0.10377299165113645,0.11496955794191199,0.05735866702884451,108,130,129,1753999595.3821893
0.10650111716037033,0.11496955794191199,0.057263398786791986,113,133,130,1753999595.3821893
0.10918542835542765,0.11477106076940313,0.05732566768675851,117,135,133,1753999595.3821893
0.11191245929650159,0.11477106076940313,0.057230437667868395,106,131,126,1753999595.3821893
0.11463949768361736,0.11477106076940313,0.05713520738895678,107,130,126,1753999595.3821893
0.11731943673635226,0.11457261036125871,0.05719759124413232,110,129,129,1753999595.3821893
0.12004538800135012,0.11457261036125871,0.05710239892836161,108,131,127,1753999595.3821893
0.12277130948218021,0.11457261036125871,0.05700720765267692,113,132,132,1753999595.3821893
0.12549724585509417,0.11457261036125871,0.056912015856949216,112,131,131,1753999595.3821893
0.12817173440515497,0.11437415995311434,0.0569745900478722,113,132,132,1753999595.3821893
0.13089656876386707,0.11437415995311434,0.056879436735328415,110,133,129,1753999595.3821893
0.13356776747913052,0.11417566278060548,0.05694216353317927,112,131,131,1753999595.3821893
0.13629149982364072,0.11417566278060548,0.05684704870381946,111,130,130,1753999595.3821893
0.13895943585682555,0.11397721237246111,0.05690985171367391,113,131,129,1753999595.3821893
0.1416251678616065,0.11377876196431674,0.05697273168989614,110,129,129,1753999595.3821893
0.14428871073006763,0.11358031155617243,0.057035688112443306,109,128,128,1753999595.3821893
0.14689094853191834,0.11318336397551915,0.05725679246754334,104,122,120,1753999595.3821893
0.1494286187657062,0.11258797134622067,0.05763612613965541,98,117,119,1753999595.3821893
0.15195972140990816,0.11199257335742302,0.05801568397828649,93,111,107,1753999595.3821893
0.15442184824861357,0.11119872496048111,0.058553619894209985,63,77,68,1753999595.3821893
0.1559864222495016,0.10762634774669372,0.061306669467473596,28,41,40,1753999595.3821893
0.15802827857918142,0.10564170873165568,0.06279517851298827,34,45,41,1753999595.3821893
0.160179596647803,0.10405401729727093,0.06396788856880803,41,47,45,1753999595.3821893
0.15783994465587856,0.08916919862255374,0.07574819908705066,90,38,45,1753999595.3821893
0.15710060645677196,0.07944444859600869,0.08341710397672081,93,36,47,1753999595.3821893
0.15894337051800844,0.0774598095809707,0.08491256547744952,119,55,68,1753999595.3821893
0.1608343061436601,0.07567362097407698,0.08625037540099306,119,51,70,1753999595.3821893
0.1752268468024506,0.10881714372428897,0.05969888725547817,110,112,118,1753999595.3821893
0.178498971175941,0.11040488192303827,0.05833674869292049,70,93,98,1753999595.3821893
0.18149523963514577,0.11119872496048111,0.057608196234241016,57,71,75,1753999595.3821893
0.18420257579538218,0.11119872496048111,0.05751365397225272,52,65,74,1753999595.3821893
0.18668335826901947,0.11060333233118269,0.05789497420872386,66,86,101,1753999595.3821893
0.18609306123715005,0.10206937828223284,0.06462278268488958,115,144,145,1753999595.3821893
0.1887500919382795,0.10206937828223284,0.06452999712824298,114,138,150,1753999595.3821893
0.19534713744384546,0.11199257335742302,0.05650056202412285,124,152,158,1753999595.3821893
0.19813874357965028,0.11219102376556744,0.0562471076006546,99,124,129,1753999595.3821893
-0.1824079127721856,0.1272423009247846,0.05417299214803056,124,146,149,1753999595.3821893
-0.17589141645610323,0.11676531512389593,0.06225272524053199,112,136,134,1753999595.3821893
-0.17217792146505684,0.1139978307636893,0.06431740665771041,134,157,162,1753999595.3821893
-0.16957994120048703,0.11439320801108899,0.06391318930866502,50,79,87,1753999595.3821893
-0.16697758152817901,0.11478853313462495,0.06350885157193359,49,65,75,1753999595.3821893
-0.16463332320887936,0.11597461275296023,0.0624865391748915,82,94,98,1753999595.3821893
-0.16382448801859317,0.12190495336127394,0.05775607593027027,84,103,105,1753999595.3821893
-0.15939797198296657,0.11676531512389593,0.06167676146796064,127,151,153,1753999595.3821893
-0.15639972834418872,0.11597461275296023,0.06219901570653319,108,127,131,1753999595.3821893
-0.1434278410377671,0.08296234413715214,0.08792174487517479,124,55,70,1753999595.3821893
-0.14086598564426128,0.08296234413715214,0.08783228291350698,116,53,59,1753999595.3821893
-0.14031197572917153,0.089683433880766,0.082483725426654,79,30,29,1753999595.3821893
-0.1381186497738559,0.09106717606086939,0.08130995303666344,44,29,30,1753999595.3821893
-0.14085736623735012,0.10964894166161149,0.06667193871514465,24,24,26,1753999595.3821893
-0.1389844247078491,0.11261408858358601,0.06425544396871175,20,23,24,1753999595.3821893
-0.13724270306335012,0.11617232207909278,0.06137326925194825,35,41,41,1753999595.3821893
-0.13497933420037087,0.11795139474223121,0.059883594754007397,56,64,63,1753999595.3821893
-0.13222385937922165,0.11795139474223121,0.05978737145293772,62,70,67,1753999595.3821893
-0.1295711881174892,0.11834676663013172,0.05938123907342413,71,80,73,1753999595.3821893
-0.12681353160606193,0.11834676663013172,0.05928493958605113,78,88,76,1753999595.3821893
-0.1240558750946346,0.11834676663013172,0.05918864009867819,91,103,95,1753999595.3821893
-0.12129821858320734,0.11834676663013172,0.059092340611305194,109,129,126,1753999595.3821893
-0.11858757747494444,0.11854442919189967,0.05884095227074865,109,132,128,1753999595.3821893
-0.11582882639535719,0.11854442919189967,0.05874461456021329,110,134,132,1753999595.3821893
-0.11311490884803023,0.1187420971131668,0.058493116982646365,111,131,126,1753999595.3821893
-0.11035506320028304,0.1187420971131668,0.0583967410489486,112,132,125,1753999595.3821893
-0.10763786344482673,0.11893980643929941,0.05814508595202006,111,134,130,1753999595.3821893
-0.1049184806833679,0.11913746900106736,0.05789339234620733,112,132,129,1753999595.3821893
-0.10215644589930079,0.11913746900106736,0.057796939966184735,112,132,129,1753999595.3821893
-0.09939441856127547,0.11913746900106736,0.057700487846183646,115,135,132,1753999595.3821893
-0.09663238377720834,0.11913746900106736,0.057604035466161,113,133,128,1753999595.3821893
-0.09387034899314123,0.11913746900106736,0.0575075830861384,114,136,135,1753999595.3821893
-0.09103615111209434,0.1187420971131668,0.05772210977308562,116,136,133,1753999595.3821893
-0.08820633300003802,0.11834676663013172,0.057936746502808056,118,137,137,1753999595.3821893
-0.08538088421822906,0.11795139474223121,0.05815157871503307,115,137,136,1753999595.3821893
-0.08259261611457913,0.11775372682096408,0.058210935735781455,116,135,135,1753999595.3821893
-0.07977482186384802,0.11735835493306351,0.05842603525012169,115,138,134,1753999595.3821893
-0.07702263819322057,0.11735835493306351,0.058329926878560756,114,136,135,1753999595.3821893
-0.0742704470765512,0.11735835493306351,0.05823381824697832,115,140,135,1753999595.3821893
-0.07151825968290278,0.11735835493306351,0.05813770974540661,113,136,132,1753999595.3821893
-0.06876607228925437,0.11735835493306351,0.05804160124383495,115,134,134,1753999595.3821893
-0.06601388489560596,0.11735835493306351,0.05794549274226324,113,137,135,1753999595.3821893
-0.06326169750195765,0.11735835493306351,0.057849384240691526,110,134,132,1753999595.3821893
-0.0605335632339645,0.11755606425919607,0.05759734730217125,111,134,130,1753999595.3821893
-0.057803234790906,0.11775372682096408,0.05734527146473445,115,135,130,1753999595.3821893
-0.055070720753922504,0.11795139474223121,0.05709312448343884,109,134,127,1753999595.3821893
-0.05233602279999049,0.11814910406836376,0.056840858335954814,117,142,135,1753999595.3821893
-0.04957946085672316,0.11814910406836376,0.05674459707174423,115,139,137,1753999595.3821893
-0.046822898913455833,0.11814910406836376,0.0566483358075337,118,141,137,1753999595.3821893
-0.04406633324716755,0.11814910406836376,0.05655207441331239,115,138,134,1753999595.3821893
-0.04129337643234383,0.11795139474223121,0.056612009018176535,117,140,136,1753999595.3821893
-0.03852260838867999,0.11775372682096408,0.0566719771544858,119,143,141,1753999595.3821893
-0.035754029300710075,0.11755606425919607,0.05673202690957513,113,138,133,1753999595.3821893
-0.03298763431031468,0.11735835493306351,0.05679219065839758,117,142,137,1753999595.3821893
-0.030223429771963583,0.11716069237129556,0.05685239317612589,117,142,135,1753999595.3821893
-0.027450487866025823,0.11676531512389593,0.05706905379009691,118,141,135,1753999595.3821893
-0.024691753376208925,0.11656765256212792,0.05712944732612918,117,142,137,1753999595.3821893
-0.021935206341827565,0.11636998464086074,0.05718991207102542,116,141,136,1753999595.3821893
-0.01918848806595799,0.11636998464086074,0.057093994555255045,116,141,136,1753999595.3821893
-0.01644177002277728,0.11636998464086074,0.056998077047610285,111,137,135,1753999595.3821893
-0.013695051717821724,0.11636998464086074,0.05690215953082417,115,137,136,1753999595.3821893
-0.010943973416990497,0.11617232207909278,0.05696282042686712,115,139,139,1753999595.3821893
-0.008195082209602158,0.11597461275296023,0.057023595421261286,114,136,137,1753999595.3821893
-0.005448379592747697,0.11577695019119227,0.05708440911955576,117,136,136,1753999595.3821893
-0.0027027860679700155,0.11538157294379264,0.057302024760041315,114,138,138,1753999595.3821893
3.8463090120620155e-05,0.11538157294379264,0.05720629823007217,110,136,134,1753999595.3821893
0.0027786020210362203,0.11518391038202458,0.057267341137330285,110,134,132,1753999595.3821893
0.005518758472477369,0.11518391038202458,0.05717165276551822,113,137,135,1753999595.3821893
0.008258913062408087,0.11518391038202458,0.05707596445871149,112,136,134,1753999595.3821893
0.0109990676523388,0.11518391038202458,0.05698027615190476,114,138,138,1753999595.3821893
0.013744707019063471,0.11538157294379264,0.056727665645231906,116,136,133,1753999595.3821893
0.01648595617715411,0.11538157294379264,0.056631939115262764,113,138,133,1753999595.3821893
0.019234877932634172,0.11557928226992514,0.056379176261683595,114,138,136,1753999595.3821893
0.021985988459274314,0.11577695019119227,0.056126379876659305,112,136,136,1753999595.3821893
0.024729423030663934,0.11577695019119227,0.056030577030376116,111,137,137,1753999595.3821893
0.02747285760205356,0.11577695019119227,0.05593477418409293,113,137,135,1753999595.3821893
0.030204252837636583,0.11557928226992514,0.055996117249157484,113,137,135,1753999595.3821893
0.0329203080948052,0.11518391038202458,0.056214769567440204,115,137,136,1753999595.3821893
0.0356462269471936,0.11498624782025663,0.05627630905078285,114,138,136,1753999595.3821893
0.038354627492658167,0.114590870572857,0.05649522349872571,114,136,135,1753999595.3821893
0.04107508095028859,0.11439320801108899,0.0565569538378588,114,139,134,1753999595.3821893
0.043810860990600387,0.11439320801108899,0.056461418293690946,114,137,133,1753999595.3821893
0.04654664103091218,0.11439320801108899,0.05636588274952309,116,139,135,1753999595.3821893
0.04928241734820303,0.11439320801108899,0.05627034733536601,114,137,133,1753999595.3821893
0.05201819738851472,0.11439320801108899,0.056174811791198154,112,136,136,1753999595.3821893
0.054753977428826525,0.11439320801108899,0.056079276247030296,111,137,135,1753999595.3821893
0.05748975746913833,0.11439320801108899,0.05598374070286244,108,134,134,1753999595.3821893
0.060201451793566486,0.11419549332545731,0.05604580946226928,113,137,135,1753999595.3821893
0.06291096329261817,0.1139978307636893,0.05610792190301561,114,138,136,1753999595.3821893
0.06561829310139193,0.11380016820192129,0.056170110530065376,114,136,137,1753999595.3821893
0.06826870124406222,0.11320712839275371,0.056547780784578505,113,132,134,1753999595.3821893
0.07094100728202068,0.11281175650485314,0.05676796085926078,115,137,136,1753999595.3821893
0.07357938262097329,0.1122187166956855,0.05714605130853889,115,138,134,1753999595.3821893
0.07624184349518341,0.11182338621265042,0.05736653228178701,114,137,133,1753999595.3821893
0.07889992759310424,0.11142801432474986,0.05758720899755909,117,137,130,1753999595.3821893
0.08161929655705846,0.11142801432474986,0.057492246540805814,111,134,128,1753999595.3821893
0.0843386655210126,0.11142801432474986,0.05739728408405259,115,134,134,1753999595.3821893
0.08709306570182392,0.11162572365088241,0.05714432991964519,109,131,132,1753999595.3821893
0.08984964144259586,0.11182338621265042,0.05689133750637515,107,129,130,1753999595.3821893
0.09260840650031392,0.11202105413391755,0.056638273819235585,109,126,129,1753999595.3821893
0.09536935306768379,0.1122187166956855,0.056385128773337345,105,124,126,1753999595.3821893
0.09813250234773296,0.11241642602181806,0.05613186908365225,104,126,125,1753999595.3821893
0.10089783463378464,0.11261408858358601,0.05587857088508286,109,128,128,1753999595.3821893
0.10362376356065667,0.11261408858358601,0.055783379349376716,106,125,127,1753999595.3821893
0.1063496999335707,0.11261408858358601,0.055688187553649016,112,131,133,1753999595.3821893
0.10907562886044274,0.11261408858358601,0.05559299601794282,112,131,133,1753999595.3821893
0.1118015726793986,0.11261408858358601,0.055497803962193615,111,130,132,1753999595.3821893
0.11448155317625701,0.11241642602181806,0.05556094764826053,113,132,132,1753999595.3821893
0.1172063875349691,0.11241642602181806,0.055465794335716745,113,131,129,1753999595.3821893
0.11993123678576502,0.11241642602181806,0.05537064050312995,116,133,136,1753999595.3821893
0.12260682543362421,0.1122187166956855,0.05543397527930849,114,131,132,1753999595.3821893
0.12533057267021833,0.1122187166956855,0.055338859929905615,118,130,132,1753999595.3821893
0.12800289863599884,0.11202105413391755,0.05540227091808786,115,129,131,1753999595.3821893
0.130725543858391,0.11202105413391755,0.0553071940518689,110,130,127,1753999595.3821893
0.13339459338510742,0.11182338621265042,0.05537071427706147,109,126,129,1753999595.3821893
0.1360614390640462,0.11162572365088241,0.055434316641077175,109,126,127,1753999595.3821893
0.13878191004220225,0.11162572365088241,0.055339315701140035,112,130,128,1753999595.3821893
0.14138857922077228,0.1112303517629819,0.05556178786545918,111,129,125,1753999595.3821893
0.14404885731012512,0.11103268384171477,0.05562561439599406,111,129,125,1753999595.3821893
0.14664787195761728,0.11063731195381421,0.055848353862428535,104,124,119,1753999595.3821893
0.14918234522783402,0.11004427214464657,0.05623007265189872,105,120,119,1753999595.3821893
0.15171023619700721,0.10945123233547888,0.056612021300386284,97,110,109,1753999595.3821893
0.15416919280480743,0.10866052996454328,0.05715310785705757,96,107,105,1753999595.3821893
0.15649248603398982,0.10747445570570713,0.058012430941147164,31,39,38,1753999595.3821893
0.15757614382252452,0.10253252679446156,0.061893083270522564,35,42,46,1753999595.3821893
0.15978675088320132,0.10114873784999373,0.06291310465416977,39,41,49,1753999595.3821893
0.15804429385860674,0.08810198237453021,0.07331884306045144,86,41,46,1753999595.3821893
0.15683579285935703,0.07703200352883849,0.08213852582648323,89,40,39,1753999595.3821893
0.15812410262342866,0.07347381679769627,0.0849148517915101,116,55,58,1753999595.3821893
0.16014330041518307,0.07209007461759293,0.08594151961075075,122,53,66,1753999595.3821893
0.17139239468099346,0.09640447686001535,0.06626959564704343,147,126,135,1753999595.3821893
0.17800024496042974,0.10727678778444,0.05741808893787009,76,98,101,1753999595.3821893
0.18076993336162162,0.10747445570570713,0.05716464379917091,63,77,83,1753999595.3821893
0.18361623894308146,0.10786982759360764,0.056751749560212394,53,64,73,1753999595.3821893
0.18601395930225867,0.10707912522267199,0.05729497453380633,68,93,100,1753999595.3821893
0.1858755471888644,0.09976499566989044,0.0630992435719474,116,145,144,1753999595.3821893
0.18845271273910494,0.09956733310812249,0.06316597763506543,89,110,116,1753999595.3821893
0.19102765936885807,0.09936967054635454,0.06323278918459435,118,146,150,1753999595.3821893
0.19807305527841285,0.11024193470641452,0.0543660407686945,103,129,131,1753999595.3821893
0.2178688703829848,0.15195207505510755,0.02060242287686531,84,103,105,1753999595.3821893
-0.190553850163149,0.13959875279830647,0.04101128074798721,115,139,141,1753999595.3821893
-0.17828021791214407,0.11360897495360184,0.06137269195435863,119,147,151,1753999595.3821893
-0.17469763607018338,0.11124625379495012,0.06313760342649499,94,119,124,1753999595.3821893
-0.1720373416845249,0.1114431338698409,0.06288721713284406,136,162,160,1753999595.3821893
-0.1695105220866741,0.11203381013987945,0.062326470267341894,51,74,79,1753999595.3821893
-0.1669104205013215,0.1124276170540256,0.06192066146260128,52,66,70,1753999595.3821893
-0.16443719519492475,0.11321517339895482,0.06120429938436783,80,92,94,1753999595.3821893
-0.161890702973736,0.11380585502849255,0.06064287071448371,103,126,120,1753999595.3821893
-0.15927417560056814,0.11419965658313952,0.060236483129830154,112,138,138,1753999595.3821893
-0.15284919940123445,0.10258300831500378,0.06930463020145927,74,63,67,1753999595.3821893
-0.14330608268373113,0.08053108039730678,0.0866114003660185,128,56,72,1753999595.3821893
-0.14074751844074723,0.08053108039730678,0.08652205333385943,98,37,42,1753999595.3821893
-0.13830710353498082,0.0809248351875892,0.08612185345544981,77,34,29,1753999595.3821893
-0.13835573271403917,0.08978500214729174,0.07903603095940931,31,25,29,1753999595.3821893
-0.1410367459470461,0.10809597093187007,0.06448214719708739,22,25,24,1753999595.3821893
-0.13882723577402495,0.10986801582048317,0.06298747979559915,22,22,22,1753999595.3821893
-0.1365433034146183,0.1114431338698409,0.0616477380040894,52,60,59,1753999595.3821893
-0.13488521900938558,0.11538097307785034,0.058439833317899426,59,70,70,1753999595.3821893
-0.13218555126986042,0.1155778999171056,0.058188034353068796,61,69,66,1753999595.3821893
-0.129483685812875,0.11577477463249725,0.05793619118685567,74,82,79,1753999595.3821893
-0.12672932045196952,0.11577477463249725,0.057840006628991414,81,89,86,1753999595.3821893
-0.12397494019898031,0.11577477463249725,0.05774382155108415,103,116,115,1753999595.3821893
-0.12126871118081271,0.11597165470738802,0.05749183118471973,112,127,126,1753999595.3821893
-0.11851323635966349,0.11597165470738802,0.05739560788365006,109,132,128,1753999595.3821893
-0.11575776153851428,0.11597165470738802,0.05729938458258044,109,132,128,1753999595.3821893
-0.11304716300947325,0.11616858154664333,0.0570472039061688,114,132,130,1753999595.3821893
-0.11029060106620592,0.11616858154664333,0.05695094264195821,114,132,130,1753999595.3821893
-0.1075767028055028,0.11636545626203493,0.0566986792809801,115,135,130,1753999595.3821893
-0.10486062267389562,0.11656233633692575,0.05644634490615402,112,131,131,1753999595.3821893
-0.10214235358659463,0.11675921105231735,0.05619392891254782,113,136,132,1753999595.3821893
-0.09942191139015576,0.11695613789157261,0.05594140448769602,115,135,132,1753999595.3821893
-0.09666097117424866,0.11695613789157261,0.05584499033083584,113,135,134,1753999595.3821893
-0.09390002351229955,0.11695613789157261,0.0557485759139541,117,136,136,1753999595.3821893
-0.09110297844164758,0.11675921105231735,0.0558084254377782,115,135,132,1753999595.3821893
-0.08827310722551183,0.11636545626203493,0.056024582869369344,115,135,130,1753999595.3821893
-0.08544760552024959,0.11597165470738802,0.05624093061100771,116,138,137,1753999595.3821893
-0.08259365480704489,0.11538097307785034,0.05661377165802656,116,138,139,1753999595.3821893
-0.0798097309779533,0.11518409300295956,0.05667404166233736,117,136,136,1753999595.3821893
-0.07702800355059734,0.11498721828756792,0.056734393545449846,120,138,136,1753999595.3821893
-0.07424844923237915,0.11479029144831265,0.05679485385980787,115,134,134,1753999595.3821893
-0.0714995455432107,0.11479029144831265,0.0566988600277234,114,139,134,1753999595.3821893
-0.0687506381310212,0.11479029144831265,0.056602866065628143,115,140,135,1753999595.3821893
-0.06602800307524154,0.11498721828756792,0.056350265064440797,110,135,130,1753999595.3821893
-0.06327800481791306,0.11498721828756792,0.056254233009193966,114,137,133,1753999595.3821893
-0.060576148211815777,0.11538097307785034,0.05584490338543152,111,134,130,1753999595.3821893
-0.05786992954088681,0.11577477463249725,0.05543538371164336,114,137,131,1753999595.3821893
-0.055137442055943016,0.11597165470738802,0.055182476379413425,113,133,130,1753999595.3821893
-0.052402770473424606,0.11616858154664333,0.05492945505345037,114,132,130,1753999595.3821893
-0.049646208530157276,0.11616858154664333,0.05483319378923979,116,133,134,1753999595.3821893
-0.046889646586889946,0.11616858154664333,0.05473693252502926,112,131,131,1753999595.3821893
-0.044115565109471656,0.11597165470738802,0.05479758395519929,111,131,126,1753999595.3821893
-0.041343679668629146,0.11577477463249725,0.05485827434929125,113,136,132,1753999595.3821893
-0.0385893031386608,0.11577477463249725,0.05476208940139471,113,132,132,1753999595.3821893
-0.03582069749865117,0.1155778999171056,0.05482289950741842,115,138,134,1753999595.3821893
-0.03305427613684218,0.11538097307785034,0.054883818434719955,111,134,128,1753999595.3821893
-0.030278001530335198,0.11498721828756792,0.05510184750116154,113,135,134,1753999595.3821893
-0.02751705021706031,0.11479029144831265,0.055162957446767025,114,138,138,1753999595.3821893
-0.024748433864652104,0.11439653665803023,0.05538125394533466,114,137,133,1753999595.3821893
-0.021992954846391046,0.11419965658313952,0.055442517264327806,113,132,132,1753999595.3821893
-0.019247329742548596,0.11419965658313952,0.055346637922965736,113,138,133,1753999595.3821893
-0.01650170533677264,0.11419965658313952,0.05525075860598072,114,138,136,1753999595.3821893
-0.013756080920089417,0.11419965658313952,0.055154879288614844,115,137,136,1753999595.3821893
-0.011006068836097484,0.11400273510338332,0.05521637641928745,114,138,136,1753999595.3821893
-0.008254953887745633,0.11360897495360184,0.05543527890158906,113,140,135,1753999595.3821893
-0.005508213156106149,0.11321517339895482,0.05565437703703213,116,139,135,1753999595.3821893
-0.00276695310499091,0.11301829868356328,0.055716142072062325,116,135,135,1753999595.3821893
-2.7880124342002387e-05,0.1128213718443079,0.055778016025878285,112,136,136,1753999595.3821893
0.002710087190779202,0.1128213718443079,0.05568240410039099,114,136,137,1753999595.3821893
0.0054480545059004135,0.1128213718443079,0.0555867921749037,112,136,134,1753999595.3821893
0.00818602182102162,0.1128213718443079,0.055491180249416405,113,135,134,1753999595.3821893
0.01092835351914933,0.11301829868356328,0.05523789142632196,113,132,132,1753999595.3821893
0.013667415402430456,0.11301829868356328,0.055142241277672255,113,135,136,1753999595.3821893
0.01641302635560498,0.11321517339895482,0.05488887048507024,114,136,137,1753999595.3821893
0.01915318466855665,0.11321517339895482,0.054793182048252786,110,132,135,1753999595.3821893
0.02190207578381611,0.11341205347384564,0.05453970188862983,111,133,132,1753999595.3821893
0.024653158262065964,0.11360897495360184,0.0542861023027969,110,134,134,1753999595.3821893
0.027384574099997484,0.11341205347384564,0.05434824882869155,107,132,139,1753999595.3821893
0.030113803028279325,0.11321517339895482,0.05441042882102587,112,136,138,1753999595.3821893
0.03282772579560226,0.1128213718443079,0.05463067298503621,110,132,133,1753999595.3821893
0.03552306464717745,0.11223069021477022,0.05500905288031366,112,136,138,1753999595.3821893
0.03822714615439901,0.1118369354244878,0.05522960298533425,109,133,135,1753999595.3821893
0.04095964621325191,0.1118369354244878,0.05513418198064285,112,136,136,1753999595.3821893
0.043674653201496126,0.11164005534959709,0.05519685861406709,113,138,133,1753999595.3821893
0.04642464260793655,0.1118369354244878,0.05494334010127083,108,130,129,1753999595.3821893
0.04917681724704994,0.11203381013987945,0.054689740099705286,115,134,134,1753999595.3821893
0.051910408151041705,0.11203381013987945,0.054594281001862255,114,136,135,1753999595.3821893
0.05464399905503355,0.11203381013987945,0.05449882190401922,114,136,137,1753999595.3821893
0.057377589959025414,0.11203381013987945,0.05440336280617619,109,133,133,1753999595.3821893
0.06008712801011691,0.1118369354244878,0.05446623559785696,113,135,136,1753999595.3821893
0.06279448419030416,0.11164005534959709,0.05452917940338575,113,137,137,1753999595.3821893
0.06547340311463393,0.11124625379495012,0.05475064592852846,117,141,141,1753999595.3821893
0.06812060702831729,0.11065557216541244,0.05513070673287651,117,136,138,1753999595.3821893
0.0707328272995845,0.10986801582048317,0.055669481138329535,119,139,136,1753999595.3821893
0.07336581671927224,0.10927733419094549,0.05605003832374589,118,137,137,1753999595.3821893
0.07602285154581832,0.10888352727679934,0.05627226387965989,115,137,136,1753999595.3821893
0.07873894425133451,0.10888352727679934,0.056177415832372346,118,137,139,1753999595.3821893
0.08142222755867058,0.1086866525614078,0.05624120545990796,118,137,139,1753999595.3821893
0.08417112221632496,0.10888352727679934,0.05598771999781876,117,136,136,1753999595.3821893
0.08688721492184115,0.10888352727679934,0.05589287195053122,117,135,133,1753999595.3821893
0.08963939214887713,0.10908045411605471,0.05563923931399117,111,131,128,1753999595.3821893
0.09239375982795743,0.10927733419094549,0.055385567908545374,110,129,131,1753999595.3821893
0.09511203422375164,0.10927733419094549,0.055290643674954565,108,127,129,1753999595.3821893
0.09786967798064386,0.10947420890633702,0.05503685268758762,109,129,126,1753999595.3821893
0.1006295246308414,0.1096711357455924,0.05478295222888929,108,127,129,1753999595.3821893
0.10343309044633366,0.1100648905358747,0.054370070841270324,104,123,125,1753999595.3821893
0.10624104811082523,0.11045869209052173,0.05395699836353968,107,124,125,1753999595.3821893
0.10896588246953724,0.11045869209052173,0.05386184505099595,107,124,129,1753999595.3821893
0.11169072427429128,0.11045869209052173,0.053766691478430606,109,126,127,1753999595.3821893
0.11436963062471203,0.11026177061076553,0.05383067167603478,110,127,128,1753999595.3821893
0.11709337786130602,0.11026177061076553,0.053735556326631906,110,127,128,1753999595.3821893
0.11976900645693815,0.1100648905358747,0.053799608083827444,112,130,128,1753999595.3821893
0.12249165167933034,0.1100648905358747,0.05370453121760849,113,133,128,1753999595.3821893
0.12516400419715062,0.10986801582048317,0.053768702556725056,111,128,129,1753999595.3821893
0.12788557718950852,0.10986801582048317,0.053673663133604,110,127,128,1753999595.3821893
0.13055463837618086,0.1096711357455924,0.05373794422977396,112,129,132,1753999595.3821893
0.1332215117422577,0.10947420890633702,0.053802339449687764,111,125,129,1753999595.3821893
0.13588619483691627,0.10927733419094549,0.05386677861096273,107,124,125,1753999595.3821893
0.13854870350671256,0.10908045411605471,0.0539312885260641,109,126,127,1753999595.3821893
0.14120900946382972,0.10888352727679934,0.05399591308495233,111,129,127,1753999595.3821893
0.14380917773325255,0.10848977248651698,0.05422009192019728,111,126,121,1753999595.3821893
0.14640495415367616,0.10809597093187007,0.05444446184555396,106,124,118,1753999595.3821893
0.14893621574886415,0.10750528930233239,0.05482857144488057,105,119,121,1753999595.3821893
0.15133843298212296,0.10652085288251228,0.05553216608464551,94,109,106,1753999595.3821893
